# .PCD v0.7 - Point Cloud Data file format
VERSION 0.7
FIELDS x y z rgba
SIZE 4 4 4 4
TYPE F F F U
COUNT 1 1 1 1
WIDTH 1053
HEIGHT 1
VIEWPOINT 0 0 0 1 0 0 0
POINTS 1053
DATA ascii
-0.11236762 0.061704762 0.68200004 4289742699
-0.11106858 0.061704762 0.68200004 4289876084
-0.10912572 0.061342862 0.67800003 4290075257
-0.097974285 0.058538094 0.64700001 4291192694
-0.096741907 0.058538094 0.64700001 4290732900
-0.093548574 0.058085714 0.64200002 4290274417
-0.09175048 0.057723809 0.63800001 4290996112
-0.090535238 0.057723809 0.63800001 4291718043
-0.089040004 0.057542857 0.63600004 4292706214
-0.087828577 0.057542857 0.63600004 4293763496
-0.086617149 0.057542857 0.63600004 4294159275
-0.085405715 0.057542857 0.63600004 4294611855
-0.16090286 0.063188568 0.68400002 4287320146
-0.15936667 0.063096188 0.68300003 4288503626
-0.15783429 0.063003816 0.68200004 4289028418
-0.15607619 0.062819049 0.68000001 4289552986
-0.15478095 0.062819049 0.68000001 4289620850
-0.15348572 0.062819049 0.68000001 4289752686
-0.15196666 0.062726662 0.67900002 4290409067
-0.15067333 0.062726662 0.67900002 4291065461
-0.14938 0.062726662 0.67900002 4291198847
-0.14786857 0.062634289 0.67800003 4291330434
-0.14679334 0.062726662 0.67900002 4291527557
-0.1455 0.062726662 0.67900002 4291724165
-0.14420667 0.062726662 0.67900002 4291723141
-0.14291334 0.062726662 0.67900002 4291723136
-0.14162 0.062726662 0.67900002 4291657596
-0.14032666 0.062726662 0.67900002 4291657084
-0.13903333 0.062726662 0.67900002 4291525756
-0.13774 0.062726662 0.67900002 4291394426
-0.13664761 0.062819049 0.68000001 4291394169
-0.13535237 0.062819049 0.68000001 4291458942
-0.13405713 0.062819049 0.68000001 4291654786
-0.1327619 0.062819049 0.68000001 4291915903
-0.13146667 0.062819049 0.68000001 4291914619
-0.13017143 0.062819049 0.68000001 4291981436
-0.12868667 0.062726662 0.67900002 4292179580
-0.12739334 0.062726662 0.67900002 4292440709
-0.12591429 0.062634289 0.67800003 4292571021
-0.12462286 0.062634289 0.67800003 4292703116
-0.12333143 0.062634289 0.67800003 4293170571
-0.12204001 0.062634289 0.67800003 4293625977
-0.12092667 0.062726662 0.67900002 4291982950
-0.11980952 0.062819049 0.68000001 4290399326
-0.11886286 0.063003816 0.68200004 4288872789
-0.1177362 0.063096188 0.68300003 4287436633
-0.11626477 0.063003816 0.68200004 4287573340
-0.11496571 0.063003816 0.68200004 4287712613
-0.11366667 0.063003816 0.68200004 4288826221
-0.11236762 0.063003816 0.68200004 4289943916
-0.11106858 0.063003816 0.68200004 4290275179
-0.10059428 0.059862856 0.648 4291789429
-0.099206664 0.05977048 0.64700001 4291984505
-0.097974285 0.05977048 0.64700001 4291323261
-0.096592382 0.059678096 0.64600003 4290665837
-0.095066674 0.059493337 0.64400005 4290463581
-0.093402863 0.05921619 0.64100003 4290341239
-0.091894291 0.059031434 0.63900006 4291001490
-0.090535238 0.058939047 0.63800001 4291721878
-0.089320004 0.058939047 0.63800001 4292442266
-0.088104762 0.058939047 0.63800001 4293170341
-0.08688952 0.058939047 0.63800001 4293767345
-0.085674286 0.058939047 0.63800001 4294348436
-0.084459044 0.058939047 0.63800001 4293422455
-0.08324381 0.058939047 0.63800001 4292564583
-0.16268001 0.064680003 0.68600005 4287389515
-0.16090286 0.064491428 0.68400002 4287914097
-0.15936667 0.064397149 0.68300003 4288504166
-0.15783429 0.064302862 0.68200004 4288963164
-0.15607619 0.064114287 0.68000001 4289487969
-0.15455334 0.06402 0.67900002 4289817959
-0.15326001 0.06402 0.67900002 4290146668
-0.15196666 0.06402 0.67900002 4290540657
-0.15045144 0.063925713 0.67800003 4290935671
-0.14916001 0.063925713 0.67800003 4291067261
-0.14786857 0.063925713 0.67800003 4291198593
-0.14657715 0.063925713 0.67800003 4291330438
-0.14528571 0.063925713 0.67800003 4291462277
-0.14399429 0.063925713 0.67800003 4291461764
-0.14270286 0.063925713 0.67800003 4291461247
-0.14141144 0.063925713 0.67800003 4291526778
-0.14012 0.063925713 0.67800003 4291526777
-0.13882858 0.063925713 0.67800003 4291395448
-0.13753714 0.063925713 0.67800003 4291329913
-0.13644667 0.06402 0.67900002 4291262075
-0.13515334 0.06402 0.67900002 4291196026
-0.13386001 0.06402 0.67900002 4291261305
-0.1327619 0.064114287 0.68000001 4291326323
-0.13146667 0.064114287 0.68000001 4291326062
-0.13017143 0.064114287 0.68000001 4291326066
-0.12868667 0.06402 0.67900002 4291392630
-0.12739334 0.06402 0.67900002 4291525762
-0.12591429 0.063925713 0.67800003 4291587471
-0.12462286 0.063925713 0.67800003 4291587972
-0.12333143 0.063925713 0.67800003 4291854202
-0.12204001 0.063925713 0.67800003 4292055164
-0.12074857 0.063925713 0.67800003 4291126654
-0.11945715 0.063925713 0.67800003 4290207334
-0.11816572 0.063925713 0.67800003 4289275215
-0.11687429 0.063925713 0.67800003 4288348493
-0.11558286 0.063925713 0.67800003 4288890699
-0.11496571 0.064302862 0.68200004 4289415009
-0.11366667 0.064302862 0.68200004 4290075000
-0.10354 0.061380003 0.65100002 4291525997
-0.10214286 0.061285719 0.65000004 4291723634
-0.10059428 0.061097141 0.648 4292051320
-0.099206664 0.061002858 0.64700001 4292378238
-0.09782286 0.060908575 0.64600003 4291717508
-0.096293338 0.060720004 0.64400005 4291057526
-0.094623812 0.060437147 0.64100003 4290659432
-0.093257144 0.060342859 0.64000005 4290342782
-0.09175048 0.060154289 0.63800001 4291002260
-0.090535238 0.060154289 0.63800001 4291656593
-0.089320004 0.060154289 0.63800001 4292311439
-0.088104762 0.060154289 0.63800001 4292970659
-0.08688952 0.060154289 0.63800001 4293560759
-0.085405715 0.059965719 0.63600004 4294216345
-0.084194295 0.059965719 0.63600004 4293426299
-0.082982861 0.059965719 0.63600004 4292697969
-0.16398668 0.065986671 0.68600005 4287321148
-0.16220573 0.065794282 0.68400002 4288634964
-0.16066763 0.065698095 0.68300003 4288570221
-0.15913334 0.065601908 0.68200004 4288504935
-0.15737143 0.065409526 0.68000001 4288964194
-0.15584667 0.065313332 0.67900002 4289423461
-0.15455334 0.065313332 0.67900002 4290015336
-0.15303428 0.065217145 0.67800003 4290605933
-0.15174286 0.065217145 0.67800003 4290672499
-0.15045144 0.065217145 0.67800003 4290804087
-0.14872001 0.065024771 0.67600006 4290935932
-0.14721428 0.064928576 0.67500001 4291066751
-0.14614478 0.065024771 0.67600006 4291132035
-0.14485715 0.065024771 0.67600006 4291262851
-0.14356954 0.065024771 0.67600006 4291262851
-0.14228192 0.065024771 0.67600006 4291262333
-0.14078571 0.064928576 0.67500001 4291327351
-0.13970669 0.065024771 0.67600006 4291458936
-0.13841906 0.065024771 0.67600006 4291328377
-0.13713144 0.065024771 0.67600006 4291261817
-0.13624573 0.065217145 0.67800003 4291064442
-0.13495429 0.065217145 0.67800003 4290933370
-0.13366286 0.065217145 0.67800003 4290802554
-0.13256668 0.065313332 0.67900002 4290737010
-0.13127334 0.065313332 0.67900002 4290671466
-0.12998 0.065313332 0.67900002 4290671474
-0.12868667 0.065313332 0.67900002 4290671481
-0.12720571 0.065217145 0.67800003 4290670457
-0.12591429 0.065217145 0.67800003 4290603897
-0.12462286 0.065217145 0.67800003 4290538358
-0.12333143 0.065217145 0.67800003 4290535796
-0.12204001 0.065217145 0.67800003 4290534256
-0.12074857 0.065217145 0.67800003 4290270572
-0.11945715 0.065217145 0.67800003 4290072417
-0.11816572 0.065217145 0.67800003 4289677655
-0.11687429 0.065217145 0.67800003 4289353050
-0.11558286 0.065217145 0.67800003 4290273885
-0.10883334 0.06281238 0.65300006 4291393658
-0.10742477 0.062716186 0.65200001 4291590514
-0.10602 0.062619999 0.65100002 4291721833
-0.10478 0.062619999 0.65100002 4291918447
-0.10354 0.062619999 0.65100002 4291920245
-0.10182857 0.062331427 0.648 4291919991
-0.10043905 0.062235236 0.64700001 4292313208
-0.098900005 0.062042862 0.64500004 4292772987
-0.097671434 0.062042862 0.64500004 4292111742
-0.096293338 0.061946671 0.64400005 4291454062
-0.09477143 0.061754286 0.64200002 4290921055
-0.093257144 0.061561912 0.64000005 4290405750
-0.092038102 0.061561912 0.64000005 4291003021
-0.090251438 0.061177142 0.63600004 4291591819
-0.089320004 0.061369527 0.63800001 4292180874
-0.087828577 0.061177142 0.63600004 4292838553
-0.08688952 0.061369527 0.63800001 4293434024
-0.085405715 0.061177142 0.63600004 4294087318
-0.084194295 0.061177142 0.63600004 4293430148
-0.082982861 0.061177142 0.63600004 4292832109
-0.16815144 0.067391433 0.68700004 4283898705
-0.16684286 0.067391433 0.68700004 4285416780
-0.16553429 0.067391433 0.68700004 4286928207
-0.16350858 0.067097142 0.68400002 4287912019
-0.16196857 0.066999055 0.68300003 4288897374
-0.16043238 0.066900954 0.68200004 4289028969
-0.15866667 0.066704765 0.68000001 4289160809
-0.15737143 0.066704765 0.68000001 4289489257
-0.15584667 0.066606671 0.67900002 4289817961
-0.15432572 0.066508569 0.67800003 4290211945
-0.15303428 0.066508569 0.67800003 4290606447
-0.15174286 0.066508569 0.67800003 4290737782
-0.15000762 0.066312388 0.67600006 4290869368
-0.14872001 0.066312388 0.67600006 4290935419
-0.14721428 0.066214286 0.67500001 4291001214
-0.14592858 0.066214286 0.67500001 4291000449
-0.14464286 0.066214286 0.67500001 4291065217
-0.14335714 0.066214286 0.67500001 4290999170
-0.14207143 0.066214286 0.67500001 4290933371
-0.14057714 0.066116191 0.67400002 4290802292
-0.13950001 0.066214286 0.67500001 4290671223
-0.13821429 0.066214286 0.67500001 4290539130
-0.13692857 0.066214286 0.67500001 4290407034
-0.13584383 0.066312388 0.67600006 4290472314
-0.13435714 0.066214286 0.67500001 4290537850
-0.13326858 0.066312388 0.67600006 4290472315
-0.13198097 0.066312388 0.67600006 4290406769
-0.13069335 0.066312388 0.67600006 4290406503
-0.13017143 0.066704765 0.68000001 4290406514
-0.12887619 0.066704765 0.68000001 4290406525
-0.12739334 0.066606671 0.67900002 4290472048
-0.12591429 0.066508569 0.67800003 4290471780
-0.12462286 0.066508569 0.67800003 4290471785
-0.12333143 0.066508569 0.67800003 4290536814
-0.12204001 0.066508569 0.67800003 4290600036
-0.12092667 0.066606671 0.67900002 4290733146
-0.11963334 0.066606671 0.67900002 4290866525
-0.11834 0.066606671 0.67900002 4290802784
-0.11256477 0.064056195 0.65300006 4290739304
-0.11132096 0.064056195 0.65300006 4291133296
-0.10883334 0.064056195 0.65300006 4291592829
-0.10742477 0.063958094 0.65200001 4291658103
-0.10602 0.063859999 0.65100002 4291787889
-0.10461906 0.063761905 0.65000004 4291918711
-0.10338096 0.063761905 0.65000004 4291918974
-0.10167143 0.063467614 0.64700001 4291919227
-0.10028381 0.063369527 0.64600003 4292445305
-0.098900005 0.063271433 0.64500004 4293036920
-0.097671434 0.063271433 0.64500004 4292443768
-0.096293338 0.063173339 0.64400005 4291850855
-0.09477143 0.062977143 0.64200002 4291116630
-0.093257144 0.062780954 0.64000005 4290403438
-0.092038102 0.062780954 0.64000005 4290935430
-0.09067715 0.062682867 0.63900006 4291461510
-0.089040004 0.062388573 0.63600004 4291854470
-0.087828577 0.062388573 0.63600004 4292247696
-0.086617149 0.062388573 0.63600004 4292710042
-0.085405715 0.062388573 0.63600004 4293171859
-0.084194295 0.062388573 0.63600004 4292578189
-0.082982861 0.062388573 0.63600004 4291983209
-0.16815144 0.068700001 0.68700004 4286072140
-0.1666 0.068600006 0.68600005 4286926672
-0.16529335 0.068600006 0.68600005 4287846998
-0.16350858 0.068399996 0.68400002 4288502876
-0.16196857 0.068300001 0.68300003 4289226082
-0.15996191 0.068000004 0.68000001 4289489255
-0.15866667 0.068000004 0.68000001 4289816168
-0.15714 0.067900002 0.67900002 4290014568
-0.15584667 0.067900002 0.67900002 4290211691
-0.15432572 0.0678 0.67800003 4290408814
-0.15258287 0.067600004 0.67600006 4290671731
-0.15129524 0.067600004 0.67600006 4290803319
-0.14978573 0.067500003 0.67500001 4290934647
-0.1485 0.067500003 0.67500001 4290935160
-0.1469962 0.067400001 0.67400002 4291000442
-0.14571238 0.067400001 0.67400002 4290934652
-0.14400001 0.067200005 0.67200005 4290868348
-0.14250761 0.067100003 0.671 4290737020
-0.14144 0.067200005 0.67200005 4290670962
-0.14016001 0.067200005 0.67200005 4290277225
-0.13888 0.067200005 0.67200005 4289884531
-0.1376 0.067200005 0.67200005 4289685630
-0.13632001 0.067200005 0.67200005 4289554815
-0.13544191 0.067400001 0.67400002 4289881216
-0.1341581 0.067400001 0.67400002 4290211200
-0.1328743 0.067400001 0.67400002 4290145664
-0.13159047 0.067400001 0.67400002 4290080117
-0.12760001 0.066 0.66000003 4290141803
-0.12634286 0.066 0.66000003 4290207346
-0.12508573 0.066 0.66000003 4290207610
-0.12382858 0.066 0.66000003 4290273907
-0.12257144 0.066 0.66000003 4290340204
-0.12131429 0.066 0.66000003 4290406259
-0.12005714 0.066 0.66000003 4290538106
-0.11880001 0.066 0.66000003 4290735994
-0.11683048 0.0656 0.65600002 4291196026
-0.11558095 0.0656 0.65600002 4291656568
-0.11433143 0.0656 0.65600002 4291854966
-0.1130819 0.0656 0.65600002 4292118135
-0.11132096 0.065300003 0.65300006 4292053880
-0.11041429 0.065499999 0.65500003 4292051323
-0.10883334 0.065300003 0.65300006 4291853693
-0.10742477 0.065200001 0.65200001 4291722617
-0.10602 0.065099999 0.65100002 4291788404
-0.10461906 0.064999998 0.65000004 4291919222
-0.10338096 0.064999998 0.65000004 4291917176
-0.10167143 0.064700007 0.64700001 4291918975
-0.10028381 0.064599998 0.64600003 4292646535
-0.098900005 0.064500004 0.64500004 4293365894
-0.097671434 0.064500004 0.64500004 4292839301
-0.096293338 0.064400002 0.64400005 4292310387
-0.09477143 0.064200006 0.64200002 4291312481
-0.093402863 0.064099997 0.64100003 4290402672
-0.092181914 0.064099997 0.64100003 4290867839
-0.090535238 0.0638 0.63800001 4291392898
-0.089320004 0.0638 0.63800001 4291524998
-0.087828577 0.063600004 0.63600004 4291657095
-0.08688952 0.0638 0.63800001 4291986057
-0.085674286 0.0638 0.63800001 4292315013
-0.084194295 0.063600004 0.63600004 4291726466
-0.082982861 0.063600004 0.63600004 4291189350
-0.16946001 0.070008576 0.68700004 4285548603
-0.16790669 0.069906674 0.68600005 4287059015
-0.16611429 0.069702856 0.68400002 4287846996
-0.16481143 0.069702856 0.68400002 4288634973
-0.16326953 0.069600955 0.68300003 4289028198
-0.16173144 0.069499053 0.68200004 4289423974
-0.15996191 0.069295242 0.68000001 4289685606
-0.15843335 0.069193333 0.67900002 4289947495
-0.15714 0.069193333 0.67900002 4290146664
-0.1551581 0.068887629 0.67600006 4290343534
-0.15387048 0.068887629 0.67600006 4290474868
-0.15235715 0.068785712 0.67500001 4290671734
-0.15107143 0.068785712 0.67500001 4290803065
-0.14956382 0.068683811 0.67400002 4290934391
-0.14827999 0.068683811 0.67400002 4290934901
-0.14656001 0.068480007 0.67200005 4290933878
-0.14528 0.068480007 0.67200005 4290933880
-0.14378572 0.068378091 0.671 4290868343
-0.14229524 0.068276189 0.67000002 4290868086
-0.14101905 0.068276189 0.67000002 4290801770
-0.13995144 0.068378091 0.671 4290670687
-0.13846667 0.068276189 0.67000002 4290605168
-0.13739523 0.068378091 0.671 4290604162
-0.13611715 0.068378091 0.671 4290603396
-0.13483904 0.068378091 0.671 4290801031
-0.13376001 0.068480007 0.67200005 4290998662
-0.13248 0.068480007 0.67200005 4291064198
-0.12885715 0.067257144 0.66000003 4291064442
-0.12760001 0.067257144 0.66000003 4291129967
-0.12634286 0.067257144 0.66000003 4291261299
-0.12508573 0.067257144 0.66000003 4291260792
-0.12382858 0.067257144 0.66000003 4291260278
-0.12257144 0.067257144 0.66000003 4291391605
-0.12131429 0.067257144 0.66000003 4291588733
-0.12005714 0.067257144 0.66000003 4291654278
-0.11880001 0.067257144 0.66000003 4291785616
-0.11683048 0.066849522 0.65600002 4292049562
-0.11558095 0.066849522 0.65600002 4292313491
-0.11433143 0.066849522 0.65600002 4292380812
-0.1130819 0.066849522 0.65600002 4292513670
-0.11132096 0.066543818 0.65300006 4292382081
-0.11007715 0.066543818 0.65300006 4292247679
-0.10866667 0.066441901 0.65200001 4292050302
-0.10726 0.066340007 0.65100002 4291919483
-0.10602 0.066340007 0.65100002 4291985016
-0.10461906 0.066238098 0.65000004 4292050805
-0.10306286 0.066034287 0.648 4292050291
-0.10167143 0.065932386 0.64700001 4292115588
-0.10028381 0.065830477 0.64600003 4292644245
-0.098900005 0.065728575 0.64500004 4293171860
-0.097520009 0.065626673 0.64400005 4292706963
-0.096293338 0.065626673 0.64400005 4292311167
-0.09477143 0.065422855 0.64200002 4291782508
-0.093402863 0.065320954 0.64100003 4291188338
-0.092181914 0.065320954 0.64100003 4291325304
-0.090535238 0.065015234 0.63800001 4291524479
-0.089600012 0.065219052 0.64000005 4291589511
-0.088104762 0.065015234 0.63800001 4291719551
-0.08688952 0.065015234 0.63800001 4292118904
-0.085674286 0.065015234 0.63800001 4292577399
-0.084194295 0.064811431 0.63600004 4291460471
-0.082982861 0.064811431 0.63600004 4290330211
-0.1725781 0.071524762 0.68900001 4283904851
-0.17126572 0.071524762 0.68900001 4286135115
-0.16921334 0.071213335 0.68600005 4287059524
-0.16790669 0.071213335 0.68600005 4288042829
-0.16611429 0.071005717 0.68400002 4288701015
-0.16481143 0.071005717 0.68400002 4289421664
-0.16326953 0.070901908 0.68300003 4289553768
-0.16173144 0.070798099 0.68200004 4289684840
-0.15972666 0.070486665 0.67900002 4289881705
-0.15843335 0.070486665 0.67900002 4290145641
-0.15690859 0.070382856 0.67800003 4290278761
-0.15492858 0.070071429 0.67500001 4290475374
-0.15364285 0.070071429 0.67500001 4290606452
-0.15213144 0.06996762 0.67400002 4290737526
-0.15084761 0.06996762 0.67400002 4290803065
-0.14912002 0.06976001 0.67200005 4290934132
-0.14784001 0.06976001 0.67200005 4290934896
-0.1463419 0.069656193 0.671 4290934388
-0.1450638 0.069656193 0.671 4290933113
-0.14357142 0.069552377 0.67000002 4290933624
-0.14208287 0.069448575 0.66900003 4290933624
-0.14080857 0.069448575 0.66900003 4290998898
-0.13953428 0.069448575 0.66900003 4291129708
-0.13826001 0.069448575 0.66900003 4291327093
-0.13719048 0.069552377 0.67000002 4291526783
-0.13571143 0.069448575 0.66900003 4291723138
-0.13483904 0.069656193 0.671 4291788677
-0.13376001 0.06976001 0.67200005 4291853444
-0.13011429 0.068514287 0.66000003 4291984003
-0.12885715 0.068514287 0.66000003 4292116865
-0.12760001 0.068514287 0.66000003 4292184448
-0.12596001 0.06830667 0.65800005 4292315523
-0.12470668 0.06830667 0.65800005 4292315526
-0.12131429 0.068514287 0.66000003 4292773505
-0.12005714 0.068514287 0.66000003 4292838784
-0.11683048 0.068099052 0.65600002 4292972429
-0.11575714 0.068202853 0.65700001 4293037963
-0.11433143 0.068099052 0.65600002 4292972681
-0.11290953 0.067995243 0.65500003 4292907142
-0.11132096 0.067787625 0.65300006 4292644995
-0.11007715 0.067787625 0.65300006 4292446337
-0.10866667 0.067683809 0.65200001 4292312447
-0.10726 0.06758 0.65100002 4292181886
-0.10602 0.06758 0.65100002 4292182654
-0.10461906 0.067476198 0.65000004 4292182911
-0.10306286 0.067268573 0.648 4292248705
-0.10167143 0.067164764 0.64700001 4292379786
-0.10028381 0.067060955 0.64600003 4292641940
-0.098900005 0.066957153 0.64500004 4292968591
-0.097520009 0.066853337 0.64400005 4292640139
-0.096293338 0.066853337 0.64400005 4292376447
-0.09477143 0.066645719 0.64200002 4292178292
-0.093402863 0.06654191 0.64100003 4292045943
-0.092181914 0.06654191 0.64100003 4291848315
-0.090960957 0.06654191 0.64100003 4291654273
-0.089740001 0.06654191 0.64100003 4291720071
-0.088519052 0.06654191 0.64100003 4291852169
-0.087025717 0.066334292 0.63900006 4292317323
-0.085674286 0.066230476 0.63800001 4292841079
-0.084194295 0.066022858 0.63600004 4291128932
-0.082982861 0.066022858 0.63600004 4289470299
-0.17389049 0.072837144 0.68900001 4283967292
-0.1725781 0.072837144 0.68900001 4285481816
-0.17076857 0.072625719 0.68700004 4286924882
-0.16921334 0.072520003 0.68600005 4287780685
-0.16741715 0.072308578 0.68400002 4288633428
-0.16587144 0.072202861 0.68300003 4289094491
-0.16457048 0.072202861 0.68300003 4289552995
-0.16326953 0.072202861 0.68300003 4289750635
-0.16125715 0.07188572 0.68000001 4289882219
-0.15949143 0.071674287 0.67800003 4290080364
-0.1582 0.071674287 0.67800003 4290278507
-0.1562143 0.071357146 0.67500001 4290409834
-0.15469906 0.07125143 0.67400002 4290541679
-0.15341523 0.07125143 0.67400002 4290671988
-0.15213144 0.07125143 0.67400002 4290803062
-0.15040001 0.071040004 0.67200005 4290868345
-0.14912002 0.071040004 0.67200005 4290999410
-0.14762001 0.070934288 0.671 4291000171
-0.14612381 0.070828572 0.67000002 4291000434
-0.14484762 0.070828572 0.67000002 4290999674
-0.14292859 0.070511431 0.66700006 4290999162
-0.14165811 0.070511431 0.66700006 4291064954
-0.14038762 0.070511431 0.66700006 4291065209
-0.13911715 0.070511431 0.66700006 4291196793
-0.13784668 0.070511431 0.66700006 4291328379
-0.13657621 0.070511431 0.66700006 4291460477
-0.13510285 0.070405714 0.66600001 4291657600
-0.13383429 0.070405714 0.66600001 4291788163
-0.13196859 0.070088573 0.66300005 4291918977
-0.12972 0.069559999 0.65800005 4292050816
-0.12885715 0.069771431 0.66000003 4292250248
-0.12721334 0.069559999 0.65800005 4292315537
-0.12596001 0.069559999 0.65800005 4292446610
-0.12432762 0.069348574 0.65600002 4292577428
-0.12382858 0.069771431 0.66000003 4292642706
-0.12257144 0.069771431 0.66000003 4292839313
-0.12131429 0.069771431 0.66000003 4293036165
-0.12005714 0.069771431 0.66000003 4293037434
-0.11826 0.06945429 0.65700001 4292973437
-0.11700857 0.06945429 0.65700001 4293038977
-0.11558095 0.069348574 0.65600002 4293170308
-0.11433143 0.069348574 0.65600002 4293039239
-0.11290953 0.069242857 0.65500003 4292973702
-0.11132096 0.06903144 0.65300006 4292776581
-0.11007715 0.06903144 0.65300006 4292644994
-0.10866667 0.068925716 0.65200001 4292315776
-0.10726 0.06882 0.65100002 4292052354
-0.10602 0.06882 0.65100002 4291986820
-0.10429715 0.068502858 0.648 4291986825
-0.10306286 0.068502858 0.648 4292052623
-0.10167143 0.068397142 0.64700001 4292118673
-0.10028381 0.068291426 0.64600003 4292248468
-0.098900005 0.068185717 0.64500004 4292443787
-0.097520009 0.068080008 0.64400005 4292377219
-0.096293338 0.068080008 0.64400005 4292310911
-0.09477143 0.067868568 0.64200002 4292244604
-0.093548574 0.067868568 0.64200002 4292112765
-0.092325717 0.067868568 0.64200002 4291981182
-0.091102861 0.067868568 0.64200002 4291784322
-0.089740001 0.067762859 0.64100003 4291851655
-0.088519052 0.067762859 0.64100003 4291919250
-0.087025717 0.067551434 0.63900006 4291792030
-0.085674286 0.067445718 0.63800001 4291597688
-0.084194295 0.067234285 0.63600004 4289675346
-0.082982861 0.067234285 0.63600004 4287824211
-0.17545715 0.07425715 0.69000006 4284103479
-0.17389049 0.074149527 0.68900001 4286269255
-0.1725781 0.074149527 0.68900001 4286993240
-0.17076857 0.073934287 0.68700004 4287780438
-0.16921334 0.073826671 0.68600005 4288502101
-0.16741715 0.073611431 0.68400002 4289289305
-0.16562857 0.073396191 0.68200004 4289487966
-0.16432953 0.073396191 0.68200004 4289750884
-0.16255239 0.073180959 0.68000001 4289948522
-0.16102 0.073073335 0.67900002 4290145389
-0.15949143 0.072965719 0.67800003 4290278767
-0.15773334 0.072750486 0.67600006 4290475377
-0.15598287 0.072535239 0.67400002 4290540915
-0.15469906 0.072535239 0.67400002 4290671989
-0.15341523 0.072535239 0.67400002 4290737783
-0.15168001 0.072320007 0.67200005 4290868858
-0.15017618 0.072212376 0.671 4290933628
-0.14889809 0.072212376 0.671 4291065208
-0.14762001 0.072212376 0.671 4291065716
-0.14612381 0.07210476 0.67000002 4291065719
-0.14463143 0.071997143 0.66900003 4291065722
-0.14292859 0.071781911 0.66700006 4291131001
-0.14165811 0.071781911 0.66700006 4291131001
-0.14038762 0.071781911 0.66700006 4291196795
-0.13911715 0.071781911 0.66700006 4291262844
-0.13764 0.071674287 0.66600001 4291328641
-0.13637143 0.071674287 0.66600001 4291459973
-0.13449429 0.071351431 0.66300005 4291656328
-0.13303047 0.071243815 0.66200006 4291787404
-0.13097335 0.070813335 0.65800005 4291985036
-0.12972 0.070813335 0.65800005 4292183180
-0.12885715 0.071028575 0.66000003 4292381073
-0.12721334 0.070813335 0.65800005 4292512150
-0.12576857 0.070705712 0.65700001 4292644245
-0.12432762 0.070598096 0.65600002 4292841876
-0.12382858 0.071028575 0.66000003 4293036691
-0.12220001 0.070813335 0.65800005 4293166482
-0.12094668 0.070813335 0.65800005 4293365388
-0.11951143 0.070705712 0.65700001 4293235591
-0.11790001 0.070490479 0.65500003 4293104268
-0.11683048 0.070598096 0.65600002 4293170577
-0.11558095 0.070598096 0.65600002 4293301647
-0.11415715 0.070490479 0.65500003 4293170573
-0.11256477 0.070275247 0.65300006 4293039502
-0.11115047 0.070167623 0.65200001 4292908687
-0.10990857 0.070167623 0.65200001 4292842635
-0.10866667 0.070167623 0.65200001 4292381575
-0.10726 0.07006 0.65100002 4291986822
-0.10602 0.07006 0.65100002 4291856005
-0.10461906 0.069952384 0.65000004 4291787902
-0.10306286 0.069737144 0.648 4291851128
-0.10167143 0.06962952 0.64700001 4291916157
-0.10028381 0.069521904 0.64600003 4291915650
-0.099053338 0.069521904 0.64600003 4291916672
-0.097671434 0.069414288 0.64500004 4292114559
-0.096293338 0.069306672 0.64400005 4292310909
-0.095066674 0.069306672 0.64400005 4292245371
-0.093840003 0.069306672 0.64400005 4292245123
-0.092613339 0.069306672 0.64400005 4292114058
-0.091386676 0.069306672 0.64400005 4291982989
-0.19624478 0.078090489 0.71300006 4281472051
-0.19488667 0.078090489 0.71300006 4282194993
-0.17677145 0.075571433 0.69000006 4284161870
-0.17545715 0.075571433 0.69000006 4285546830
-0.17389049 0.075461902 0.68900001 4286993491
-0.17207715 0.075242862 0.68700004 4287780184
-0.17076857 0.075242862 0.68700004 4288567130
-0.16921334 0.075133339 0.68600005 4288961373
-0.16741715 0.074914292 0.68400002 4289355615
-0.16562857 0.074695244 0.68200004 4289751906
-0.16384763 0.074476197 0.68000001 4290146150
-0.16231333 0.074366666 0.67900002 4290211946
-0.16078286 0.074257143 0.67800003 4290277742
-0.15902096 0.074038103 0.67600006 4290409587
-0.1575 0.073928572 0.67500001 4290606967
-0.15598287 0.073819049 0.67400002 4290672252
-0.15424001 0.073600002 0.67200005 4290738811
-0.15296002 0.073600002 0.67200005 4290869115
-0.15145428 0.073490478 0.671 4291000189
-0.14995238 0.073380955 0.67000002 4291065984
-0.14867619 0.073380955 0.67000002 4291197310
-0.14718001 0.073271431 0.66900003 4291197309
-0.14590572 0.073271431 0.66900003 4291197307
-0.14463143 0.073271431 0.66900003 4291197306
-0.14292859 0.073052391 0.66700006 4291263097
-0.14144571 0.07294286 0.66600001 4291328633
-0.14017715 0.07294286 0.66600001 4291394172
-0.13890858 0.07294286 0.66600001 4291394176
-0.13764 0.07294286 0.66600001 4291459975
-0.13616668 0.072833337 0.66500002 4291591054
-0.13449429 0.07261429 0.66300005 4291787921
-0.13282953 0.072395235 0.66100001 4292050581
-0.13157047 0.072395235 0.66100001 4292247958
-0.13011429 0.072285712 0.66000003 4292380056
-0.12885715 0.072285712 0.66000003 4292577690
-0.12721334 0.072066672 0.65800005 4292643996
-0.12576857 0.071957141 0.65700001 4292776344
-0.12432762 0.071847618 0.65600002 4292841621
-0.12345334 0.072066672 0.65800005 4292972180
-0.12201429 0.071957141 0.65700001 4293104020
-0.12076285 0.071957141 0.65700001 4293170580
-0.11951143 0.071957141 0.65700001 4293104276
-0.11808 0.071847618 0.65600002 4292973211
-0.11683048 0.071847618 0.65600002 4293038498
-0.11558095 0.071847618 0.65600002 4293038234
-0.11415715 0.071738102 0.65500003 4292973203
-0.11256477 0.071519054 0.65300006 4292910230
-0.11115047 0.071409523 0.65200001 4292778650
-0.10990857 0.071409523 0.65200001 4292712852
-0.1085 0.071300007 0.65100002 4292381839
-0.10726 0.071300007 0.65100002 4292052362
-0.10602 0.071300007 0.65100002 4291920262
-0.10461906 0.071190484 0.65000004 4291849843
-0.10306286 0.070971422 0.648 4291457377
-0.10167143 0.070861906 0.64700001 4291062377
-0.10043905 0.070861906 0.64700001 4290932081
-0.099053338 0.070752382 0.64600003 4290802038
-0.09782286 0.070752382 0.64600003 4291196027
-0.096442863 0.070642859 0.64500004 4291655803
-0.095214292 0.070642859 0.64500004 4291721595
-0.093840003 0.070533335 0.64400005 4291853193
-0.092613339 0.070533335 0.64400005 4291787671
-0.091386676 0.070533335 0.64400005 4291787929
-0.19891429 0.078891426 0.708 4285286194
-0.19756572 0.078891426 0.708 4285280294
-0.19569428 0.079225719 0.71100003 4279044644
-0.19434001 0.079225719 0.71100003 4280946989
-0.17651524 0.076774284 0.68900001 4286399304
-0.17520285 0.076774284 0.68900001 4287055699
-0.17338572 0.07655143 0.68700004 4287715416
-0.17182668 0.076440006 0.68600005 4288502109
-0.17052001 0.076440006 0.68600005 4289355103
-0.16872001 0.076217145 0.68400002 4289356642
-0.16717239 0.076105714 0.68300003 4289423972
-0.16514286 0.075771429 0.68000001 4289950310
-0.16360667 0.075659998 0.67900002 4290539883
-0.1620743 0.075548574 0.67800003 4290474353
-0.16030858 0.07532572 0.67600006 4290474355
-0.15855049 0.075102858 0.67400002 4290605942
-0.15726668 0.075102858 0.67400002 4290738041
-0.15552001 0.074880004 0.67200005 4290738043
-0.15424001 0.074880004 0.67200005 4290803836
-0.15296002 0.074880004 0.67200005 4290934908
-0.15145428 0.074768573 0.671 4291131773
-0.14995238 0.074657142 0.67000002 4291197566
-0.14845429 0.074545719 0.66900003 4291328638
-0.14718001 0.074545719 0.66900003 4291328894
-0.14546953 0.074322864 0.66700006 4291394173
-0.14419906 0.074322864 0.66700006 4291394171
-0.14271429 0.074211434 0.66600001 4291394171
-0.14123333 0.074100003 0.66500002 4291459707
-0.13996668 0.074100003 0.66500002 4291590781
-0.13828287 0.073877148 0.66300005 4291591039
-0.13702002 0.073877148 0.66300005 4291592068
-0.13575715 0.073877148 0.66300005 4291789705
-0.13429144 0.073765725 0.66200006 4291986570
-0.13262857 0.073542856 0.66000003 4292249228
-0.13097335 0.073320009 0.65800005 4292578447
-0.12972 0.073320009 0.65800005 4292645779
-0.12846668 0.073320009 0.65800005 4292776342
-0.12702 0.07320857 0.65700001 4292841370
-0.12576857 0.07320857 0.65700001 4292906904
-0.12432762 0.07309714 0.65600002 4292906902
-0.1230781 0.07309714 0.65600002 4292972949
-0.12201429 0.07320857 0.65700001 4292973460
-0.12076285 0.07320857 0.65700001 4293038741
-0.11932953 0.07309714 0.65600002 4292972951
-0.11790001 0.072985716 0.65500003 4292907418
-0.11683048 0.07309714 0.65600002 4292842141
-0.11558095 0.07309714 0.65600002 4292841624
-0.11415715 0.072985716 0.65500003 4292841620
-0.11256477 0.072762862 0.65300006 4292841110
-0.11115047 0.072651431 0.65200001 4292709783
-0.10990857 0.072651431 0.65200001 4292578709
-0.10866667 0.072651431 0.65200001 4292316820
-0.10726 0.07254 0.65100002 4292118668
-0.10602 0.07254 0.65100002 4292050052
-0.10461906 0.072428577 0.65000004 4291982968
-0.10338096 0.072428577 0.65000004 4291063916
-0.10182857 0.072205715 0.648 4290210418
-0.10059428 0.072205715 0.648 4289946745
-0.099360004 0.072205715 0.648 4289685115
-0.098125711 0.072205715 0.648 4290341244
-0.096741907 0.072094291 0.64700001 4290997117
-0.095509529 0.072094291 0.64700001 4291259774
-0.094131432 0.071982861 0.64600003 4291521668
-0.092900954 0.071982861 0.64600003 4291521419
-0.091386676 0.071760006 0.64400005 4291588737
-0.19998001 0.080126666 0.70700002 4285937186
-0.19863333 0.080126666 0.70700002 4285017624
-0.19728667 0.080126666 0.70700002 4284032524
-0.19677144 0.080466673 0.71000004 4282716673
-0.19569428 0.080580004 0.71100003 4281467157
-0.19488667 0.080806673 0.71300006 4282391593
-0.19434287 0.081146665 0.71600002 4283373613
-0.19297905 0.081146665 0.71600002 4283635249
-0.18071429 0.078200005 0.69000006 4284362550
-0.17940001 0.078200005 0.69000006 4284960817
-0.17808573 0.078200005 0.69000006 4286009388
-0.17651524 0.078086674 0.68900001 4287057986
-0.17520285 0.078086674 0.68900001 4287780440
-0.17262858 0.077520005 0.68400002 4288503133
-0.17132571 0.077520005 0.68400002 4289027938
-0.16952573 0.077293336 0.68200004 4289487205
-0.16822667 0.077293336 0.68200004 4289686376
-0.16643809 0.077066667 0.68000001 4289820009
-0.1649 0.076953337 0.67900002 4290212715
-0.16336572 0.076840006 0.67800003 4290605937
-0.16135715 0.076500006 0.67500001 4290605688
-0.16007142 0.076500006 0.67500001 4290671225
-0.15855049 0.076386668 0.67400002 4290737274
-0.15726668 0.076386668 0.67400002 4290869370
-0.15552001 0.076159999 0.67200005 4290934907
-0.15401047 0.076046668 0.671 4291000700
-0.15273239 0.076046668 0.671 4291132030
-0.15122858 0.075933337 0.67000002 4291263613
-0.14972858 0.075819999 0.66900003 4291394941
-0.14845429 0.075819999 0.66900003 4291460734
-0.14674 0.075593337 0.66700006 4291460736
-0.14525144 0.075479999 0.66600001 4291460734
-0.14398286 0.075479999 0.66600001 4291526269
-0.1425 0.075366668 0.66500002 4291526525
-0.14080858 0.075139999 0.66300005 4291592062
-0.13954572 0.075139999 0.66300005 4291723134
-0.13807429 0.075026676 0.66200006 4291723134
-0.13681334 0.075026676 0.66200006 4291724417
-0.13534762 0.074913338 0.66100001 4291855492
-0.13408858 0.074913338 0.66100001 4292052099
-0.13222668 0.074573338 0.65800005 4292447619
-0.13097335 0.074573338 0.65800005 4292842889
-0.12972 0.074573338 0.65800005 4292907919
-0.12846668 0.074573338 0.65800005 4292973715
-0.12702 0.07446 0.65700001 4292973464
-0.12576857 0.07446 0.65700001 4293038743
-0.12432762 0.074346669 0.65600002 4292973463
-0.12326571 0.07446 0.65700001 4292973718
-0.12201429 0.07446 0.65700001 4292907925
-0.12076285 0.07446 0.65700001 4292907671
-0.11951143 0.07446 0.65700001 4292842394
-0.11808 0.074346669 0.65600002 4292777113
-0.11683048 0.074346669 0.65600002 4292711064
-0.11558095 0.074346669 0.65600002 4292645271
-0.11415715 0.074233338 0.65500003 4292579734
-0.11256477 0.074006677 0.65300006 4292513429
-0.11132096 0.074006677 0.65300006 4292447637
-0.11007715 0.074006677 0.65300006 4292448407
-0.10883334 0.074006677 0.65300006 4292251033
-0.10742477 0.073893331 0.65200001 4292119694
-0.10618286 0.073893331 0.65200001 4292053635
-0.10478 0.07378 0.65100002 4291987581
-0.10354 0.07378 0.65100002 4291527543
-0.10214286 0.073666669 0.65000004 4291133052
-0.10059428 0.07344 0.648 4290933378
-0.099360004 0.07344 0.648 4290733952
-0.098125711 0.07344 0.648 4290996862
-0.096741907 0.07332667 0.64700001 4291260031
-0.095509529 0.07332667 0.64700001 4290998145
-0.094277143 0.07332667 0.64700001 4290802560
-0.092900954 0.073213331 0.64600003 4290146176
-0.19998001 0.081473336 0.70700002 4286660146
-0.19863333 0.081473336 0.70700002 4284744733
-0.19756572 0.081588566 0.708 4282849295
-0.19621713 0.081588566 0.708 4283375874
-0.19541906 0.08181905 0.71000004 4283900945
-0.19434001 0.081934288 0.71100003 4283901729
-0.19352859 0.082164772 0.71300006 4283903531
-0.1921705 0.082164772 0.71300006 4284233270
-0.18071429 0.079514287 0.69000006 4285745980
-0.17914 0.079399049 0.68900001 4286730811
-0.17782763 0.079399049 0.68900001 4287256379
-0.17600286 0.07916858 0.68700004 4287781707
-0.17393143 0.078822859 0.68400002 4288569180
-0.17262858 0.078822859 0.68400002 4289355617
-0.17107525 0.078707621 0.68300003 4289488742
-0.16902857 0.078361906 0.68000001 4289685100
-0.16773333 0.078361906 0.68000001 4289950578
-0.16619334 0.078246668 0.67900002 4290278259
-0.16465716 0.07813143 0.67800003 4290475124
-0.16288382 0.077900954 0.67600006 4290670964
-0.16135715 0.077785715 0.67500001 4290735988
-0.15983428 0.077670477 0.67400002 4290867830
-0.15855049 0.077670477 0.67400002 4290934392
-0.15680002 0.077440001 0.67200005 4291066234
-0.15528856 0.077324763 0.671 4291132028
-0.15401047 0.077324763 0.671 4291197821
-0.15250477 0.077209525 0.67000002 4291329150
-0.15122858 0.077209525 0.67000002 4291460479
-0.14972858 0.077094287 0.66900003 4291526528
-0.14801048 0.076863818 0.66700006 4291657600
-0.14652 0.076748572 0.66600001 4291592064
-0.14525144 0.076748572 0.66600001 4291592064
-0.14398286 0.076748572 0.66600001 4291657601
-0.14207143 0.076402865 0.66300005 4291723138
-0.14080858 0.076402865 0.66300005 4291788675
-0.13933526 0.07628762 0.66200006 4291854211
-0.13807429 0.07628762 0.66200006 4291854467
-0.13681334 0.07628762 0.66200006 4291920005
-0.13534762 0.076172382 0.66100001 4291985800
-0.13388571 0.076057144 0.66000003 4292117127
-0.13222668 0.075826667 0.65800005 4292646023
-0.13097335 0.075826667 0.65800005 4293170061
-0.12972 0.075826667 0.65800005 4293169812
-0.12846668 0.075826667 0.65800005 4293170330
-0.12721334 0.075826667 0.65800005 4293171104
-0.12576857 0.075711429 0.65700001 4293170843
-0.12451714 0.075711429 0.65700001 4293039510
-0.12326571 0.075711429 0.65700001 4292973973
-0.12201429 0.075711429 0.65700001 4292908692
-0.12076285 0.075711429 0.65700001 4292842901
-0.11951143 0.075711429 0.65700001 4292777365
-0.11808 0.075596191 0.65600002 4292711571
-0.11683048 0.075596191 0.65600002 4292581009
-0.11558095 0.075596191 0.65600002 4292514448
-0.11433143 0.075596191 0.65600002 4292383375
-0.11256477 0.075250484 0.65300006 4292251021
-0.1116619 0.075480953 0.65500003 4292250508
-0.11007715 0.075250484 0.65300006 4292315786
-0.10916667 0.075480953 0.65500003 4292250248
-0.10758953 0.075250484 0.65300006 4292184197
-0.10634572 0.075250484 0.65300006 4292052610
-0.10510191 0.075250484 0.65300006 4291986559
-0.10369905 0.075135238 0.65200001 4291986300
-0.1023 0.07502 0.65100002 4292050559
-0.10090476 0.074904762 0.65000004 4291921283
-0.099666677 0.074904762 0.65000004 4291788165
-0.098428577 0.074904762 0.65000004 4291655303
-0.096891426 0.074674278 0.648 4291522163
-0.095657147 0.074674278 0.648 4290802014
-0.094277143 0.074559048 0.64700001 4290144357
-0.19998001 0.082819998 0.70700002 4285810498
-0.19863333 0.082819998 0.70700002 4284880418
-0.19728667 0.082819998 0.70700002 4283960082
-0.19621713 0.082937144 0.708 4284488707
-0.19486856 0.082937144 0.708 4285017358
-0.19351999 0.082937144 0.708 4285214746
-0.19271429 0.083171427 0.71000004 4285346602
-0.1913619 0.083171427 0.71000004 4285283387
-0.18467145 0.08141429 0.69500005 4285350195
-0.18202859 0.080828577 0.69000006 4285480250
-0.18071429 0.080828577 0.69000006 4286467906
-0.17914 0.080711432 0.68900001 4287386694
-0.17731145 0.080477148 0.68700004 4287846731
-0.17574668 0.080360003 0.68600005 4288372565
-0.17393143 0.080125719 0.68400002 4288897120
-0.1723762 0.080008574 0.68300003 4289487205
-0.1703238 0.079657145 0.68000001 4289685611
-0.16878001 0.079540007 0.67900002 4289948787
-0.16748667 0.079540007 0.67900002 4290213244
-0.16594857 0.079422861 0.67800003 4290474876
-0.16417144 0.079188578 0.67600006 4290672509
-0.16264287 0.079071432 0.67500001 4290870135
-0.16111811 0.078954287 0.67400002 4290936177
-0.15983428 0.078954287 0.67400002 4291002227
-0.15808001 0.078720003 0.67200005 4291067254
-0.15656666 0.07860285 0.671 4291198074
-0.15528856 0.07860285 0.671 4291198078
-0.15378095 0.07848572 0.67000002 4291263614
-0.15250477 0.07848572 0.67000002 4291394686
-0.15100287 0.078368574 0.66900003 4291526528
-0.14972858 0.078368574 0.66900003 4291592579
-0.14801048 0.078134291 0.66700006 4291724162
-0.14652 0.078017138 0.66600001 4291723905
-0.14525144 0.078017138 0.66600001 4291723907
-0.14376667 0.077900007 0.66500002 4291789189
-0.14207143 0.077665716 0.66300005 4291854471
-0.14080858 0.077665716 0.66300005 4291920009
-0.13933526 0.077548578 0.66200006 4291985800
-0.13807429 0.077548578 0.66200006 4291985800
-0.13660666 0.077431425 0.66100001 4292051338
-0.13534762 0.077431425 0.66100001 4292182413
-0.13388571 0.077314287 0.66000003 4292313484
-0.13222668 0.077080004 0.65800005 4292776587
-0.13097335 0.077080004 0.65800005 4293169810
-0.12972 0.077080004 0.65800005 4293169817
-0.12846668 0.077080004 0.65800005 4293235872
-0.12721334 0.077080004 0.65800005 4293301672
-0.12596001 0.077080004 0.65800005 4293367966
-0.12451714 0.076962851 0.65700001 4293170581
-0.12326571 0.076962851 0.65700001 4292975252
-0.12201429 0.076962851 0.65700001 4292908692
-0.12076285 0.076962851 0.65700001 4292843410
-0.11951143 0.076962851 0.65700001 4292777105
-0.11808 0.07684572 0.65600002 4292711310
-0.11683048 0.07684572 0.65600002 4292580235
-0.11575714 0.076962851 0.65700001 4292449162
-0.11433143 0.07684572 0.65600002 4292251529
-0.11290953 0.076728575 0.65500003 4292054150
-0.1116619 0.076728575 0.65500003 4291857283
-0.11041429 0.076728575 0.65500003 4291660413
-0.10933334 0.07684572 0.65600002 4291396728
-0.10808381 0.07684572 0.65600002 4291198589
-0.10683428 0.07684572 0.65600002 4291067010
-0.10542382 0.076728575 0.65500003 4290935682
-0.10385811 0.076494291 0.65300006 4290805122
-0.10245714 0.076377138 0.65200001 4290740099
-0.10106 0.076260008 0.65100002 4290150276
-0.099820003 0.076260008 0.65100002 4289626250
-0.098580003 0.076260008 0.65100002 4288903057
-0.097190477 0.076142862 0.65000004 4288179814
-0.095952384 0.076142862 0.65000004 4287581756
-0.093100004 0.077900007 0.66500002 4285007377
-0.091833338 0.077900007 0.66500002 4284289046
-0.1994143 0.083928578 0.70500004 4285018168
-0.19807144 0.083928578 0.70500004 4285081891
-0.19728667 0.084166668 0.70700002 4285152042
-0.19538572 0.083928578 0.70500004 4285681201
-0.19486856 0.084285714 0.708 4286206513
-0.19215333 0.083690472 0.70300001 4286535473
-0.19081429 0.083690472 0.70300001 4286861370
-0.18947524 0.083690472 0.70300001 4286335555
-0.18599525 0.082738101 0.69500005 4285876034
-0.18467145 0.082738101 0.69500005 4286006593
-0.18229239 0.082261913 0.69100004 4286204999
-0.18071429 0.082142867 0.69000006 4287124301
-0.17914 0.082023807 0.68900001 4288107853
-0.17782763 0.082023807 0.68900001 4288502606
-0.17523429 0.081428573 0.68400002 4288962903
-0.17367715 0.08130952 0.68300003 4289292384
-0.17212382 0.081190482 0.68200004 4289620071
-0.17007335 0.080833331 0.67900002 4289948015
-0.16878001 0.080833331 0.67900002 4290278260
-0.16724001 0.080714293 0.67800003 4290476154
-0.16594857 0.080714293 0.67800003 4290739067
-0.16392857 0.080357142 0.67500001 4290870909
-0.16264287 0.080357142 0.67500001 4291067515
-0.16111811 0.080238096 0.67400002 4291133049
-0.15936002 0.080000006 0.67200005 4291198842
-0.15808001 0.080000006 0.67200005 4291264379
-0.15656666 0.079880953 0.671 4291329661
-0.15505713 0.079761907 0.67000002 4291329408
-0.15378095 0.079761907 0.67000002 4291394688
-0.15227714 0.079642855 0.66900003 4291525760
-0.15100287 0.079642855 0.66900003 4291657858
-0.14928097 0.079404771 0.66700006 4291724421
-0.14801048 0.079404771 0.66700006 4291789956
-0.14652 0.079285711 0.66600001 4291789956
-0.14525144 0.079285711 0.66600001 4291855492
-0.14376667 0.079166666 0.66500002 4291921029
-0.14207143 0.078928575 0.66300005 4292051846
-0.14080858 0.078928575 0.66300005 4292051847
-0.13933526 0.07880953 0.66200006 4292117128
-0.13786572 0.078690477 0.66100001 4292182666
-0.13660666 0.078690477 0.66100001 4292247949
-0.13514286 0.078571431 0.66000003 4292378768
-0.13388571 0.078571431 0.66000003 4292575886
-0.13222668 0.078333341 0.65800005 4292907404
-0.13097335 0.078333341 0.65800005 4293235090
-0.12972 0.078333341 0.65800005 4293235352
-0.12846668 0.078333341 0.65800005 4293301147
-0.12721334 0.078333341 0.65800005 4293432479
-0.12596001 0.078333341 0.65800005 4293563546
-0.12470668 0.078333341 0.65800005 4293301654
-0.12345334 0.078333341 0.65800005 4293039508
-0.12220001 0.078333341 0.65800005 4292908691
-0.12094668 0.078333341 0.65800005 4292842898
-0.11969334 0.078333341 0.65800005 4292777105
-0.11826 0.078214288 0.65700001 4292776338
-0.11700857 0.078214288 0.65700001 4292579219
-0.11575714 0.078214288 0.65700001 4292382607
-0.11450572 0.078214288 0.65700001 4292119436
-0.11325429 0.078214288 0.65700001 4291857544
-0.11200286 0.078214288 0.65700001 4291395972
-0.11075143 0.078214288 0.65700001 4291003262
-0.10966668 0.078333341 0.65800005 4290603896
-0.10841334 0.078333341 0.65800005 4290274936
-0.10699714 0.078214288 0.65700001 4290077049
-0.10574571 0.078214288 0.65700001 4289880926
-0.10433524 0.078095235 0.65600002 4289684804
-0.10308572 0.078095235 0.65600002 4289484624
-0.10183619 0.078095235 0.65600002 4288432477
-0.10058667 0.078095235 0.65600002 4287444575
-0.10009428 0.078690477 0.66100001 4286129249
-0.098835237 0.078690477 0.66100001 4284813898
-0.095952384 0.077380955 0.65000004 4284285236
-0.092820004 0.078928575 0.66300005 4284550177
-0.091557153 0.078928575 0.66300005 4285011493
-0.090702854 0.079285711 0.66600001 4285014058
-0.089434281 0.079285711 0.66600001 4285082684
-0.19913144 0.08515048 0.70400006 4285207855
-0.1977905 0.08515048 0.70400006 4286005540
-0.19644953 0.08515048 0.70400006 4286794049
-0.19538572 0.085271433 0.70500004 4286992735
-0.19459333 0.085513331 0.70700002 4287126100
-0.19215333 0.08502952 0.70300001 4287059017
-0.19027144 0.084787622 0.70100003 4287058762
-0.18866667 0.084666677 0.70000005 4286793292
-0.18653049 0.084303811 0.69700003 4286593869
-0.18467145 0.084061913 0.69500005 4286925391
-0.18229239 0.083578095 0.69100004 4287190100
-0.18071429 0.08345715 0.69000006 4287780185
-0.17914 0.083336189 0.68900001 4288304725
-0.17731145 0.083094291 0.68700004 4288832849
-0.17523429 0.082731433 0.68400002 4289294169
-0.17367715 0.08261048 0.68300003 4289621089
-0.17212382 0.082489528 0.68200004 4289948266
-0.17007335 0.08212667 0.67900002 4290212467
-0.16853143 0.082005717 0.67800003 4290542197
-0.16724001 0.082005717 0.67800003 4290739320
-0.16545905 0.081763811 0.67600006 4290936443
-0.16392857 0.081642851 0.67500001 4291067518
-0.1624019 0.081521906 0.67400002 4291198592
-0.16111811 0.081521906 0.67400002 4291264130
-0.15936002 0.081280008 0.67200005 4291329921
-0.15808001 0.081280008 0.67200005 4291330176
-0.15633334 0.081038095 0.67000002 4291396481
-0.15505713 0.081038095 0.67000002 4291461762
-0.15355143 0.08091715 0.66900003 4291592834
-0.15227714 0.08091715 0.66900003 4291659395
-0.15100287 0.08091715 0.66900003 4291791493
-0.14928097 0.080675244 0.66700006 4291856775
-0.14778858 0.080554284 0.66600001 4291922055
-0.14652 0.080554284 0.66600001 4291987591
-0.14503333 0.080433331 0.66500002 4291987846
-0.14333428 0.080191433 0.66300005 4292053382
-0.14207143 0.080191433 0.66300005 4292118918
-0.1405962 0.080070481 0.66200006 4292118662
-0.13933526 0.080070481 0.66200006 4292183945
-0.13786572 0.079949521 0.66100001 4292182924
-0.13660666 0.079949521 0.66100001 4292248463
-0.13514286 0.079828568 0.66000003 4292314003
-0.13388571 0.079828568 0.66000003 4292445328
-0.13222668 0.079586677 0.65800005 4292905614
-0.13097335 0.079586677 0.65800005 4293365394
-0.12972 0.079586677 0.65800005 4293300375
-0.12846668 0.079586677 0.65800005 4293300886
-0.12721334 0.079586677 0.65800005 4293300374
-0.12596001 0.079586677 0.65800005 4293365398
-0.12470668 0.079586677 0.65800005 4293168791
-0.12345334 0.079586677 0.65800005 4292906644
-0.12220001 0.079586677 0.65800005 4292775826
-0.12094668 0.079586677 0.65800005 4292645265
-0.11969334 0.079586677 0.65800005 4292513937
-0.11844 0.079586677 0.65800005 4292317334
-0.11718668 0.079586677 0.65800005 4292054939
-0.11593334 0.079586677 0.65800005 4291792789
-0.11468001 0.079586677 0.65800005 4291464847
-0.11342667 0.079586677 0.65800005 4291071370
-0.11217334 0.079586677 0.65800005 4290610565
-0.11092001 0.079586677 0.65800005 4290149759
-0.11000001 0.079828568 0.66000003 4289752185
-0.10874286 0.079828568 0.66000003 4289354612
-0.10748572 0.079828568 0.66000003 4289419888
-0.10590667 0.079586677 0.65800005 4289485115
-0.10465334 0.079586677 0.65800005 4289349382
-0.10324285 0.079465717 0.65700001 4289201182
-0.10199143 0.079465717 0.65700001 4288873014
-0.10135334 0.079949521 0.66100001 4288610611
-0.10009428 0.079949521 0.66100001 4288020785
-0.098835237 0.079949521 0.66100001 4287430959
-0.095345721 0.080191433 0.66300005 4286519861
-0.094082862 0.080191433 0.66300005 4286391859
-0.093100004 0.080433331 0.66500002 4286457905
-0.091971427 0.080554284 0.66600001 4286524213
-0.090702854 0.080554284 0.66600001 4286262329
-0.089434281 0.080554284 0.66600001 4286066243
-0.088165708 0.080554284 0.66600001 4286066510
-0.19913144 0.086491436 0.70400006 4285477935
-0.19750953 0.086368576 0.70300001 4286995008
-0.19617048 0.086368576 0.70300001 4288504137
-0.19510858 0.086491436 0.70400006 4288309586
-0.19404286 0.086614288 0.70500004 4288109905
-0.19160667 0.086122856 0.70100003 4287648336
-0.19027144 0.086122856 0.70100003 4287254095
-0.1889362 0.086122856 0.70100003 4287316559
-0.18599525 0.085385717 0.69500005 4287383632
-0.18440571 0.085262857 0.69400001 4287778642
-0.18202859 0.084771439 0.69000006 4288238679
-0.17992857 0.084402859 0.68700004 4288371035
