# .PCD v0.7 - Point Cloud Data file format
VERSION 0.7
FIELDS x y z
SIZE 4 4 4
TYPE F F F
COUNT 1 1 1
WIDTH 1380
HEIGHT 1
VIEWPOINT 0 0 0 1 0 0 0
POINTS 1380
DATA ascii
0.051647618 0.035849527 0.63800001
0.052945718 0.035905719 0.63900006
0.054247621 0.035961907 0.64000005
0.055553336 0.036018096 0.64100003
0.056774288 0.036018096 0.64100003
0.058085714 0.036074288 0.64200002
0.059308574 0.036074288 0.64200002
0.060720004 0.036186669 0.64400005
0.062042862 0.036242861 0.64500004
0.063467614 0.036355238 0.64700001
0.064700007 0.036355238 0.64700001
0.066543818 0.036692385 0.65300006
0.067787625 0.036692385 0.65300006
0.06903144 0.036692385 0.65300006
0.070275247 0.036692385 0.65300006
-0.032542858 0.038923811 0.67000002
-0.031266667 0.038923811 0.67000002
-0.029945714 0.038865715 0.66900003
-0.02867143 0.038865715 0.66900003
-0.027397145 0.038865715 0.66900003
-0.026122857 0.038865715 0.66900003
-0.00434 0.03782 0.65100002
-0.0031000001 0.03782 0.65100002
-0.0018600001 0.03782 0.65100002
-0.00062000001 0.03782 0.65100002
0.00062000001 0.03782 0.65100002
0.0018514285 0.037645712 0.648
0.0030761904 0.037529524 0.64600003
0.0043000001 0.037471429 0.64500004
0.0055200006 0.037413336 0.64400005
0.006746667 0.037413336 0.64400005
0.0079485718 0.037297145 0.64200002
0.0091714282 0.037297145 0.64200002
0.010361905 0.037180953 0.64000005
0.011544761 0.037064761 0.63800001
0.012720001 0.036948573 0.63600004
0.013909525 0.036890481 0.63500005
0.015095239 0.036832381 0.634
0.016302858 0.036832381 0.634
0.017510476 0.036832381 0.634
0.018688573 0.036774289 0.63300002
0.019894285 0.036774289 0.63300002
0.0211 0.036774289 0.63300002
0.022305716 0.036774289 0.63300002
0.023511428 0.036774289 0.63300002
0.024717143 0.036774289 0.63300002
0.025922857 0.036774289 0.63300002
0.027128572 0.036774289 0.63300002
0.028334286 0.036774289 0.63300002
0.02954 0.036774289 0.63300002
0.030745715 0.036774289 0.63300002
0.031951427 0.036774289 0.63300002
0.033209521 0.036832381 0.634
0.034417141 0.036832381 0.634
0.035624765 0.036832381 0.634
0.036832381 0.036832381 0.634
0.038040001 0.036832381 0.634
0.039247617 0.036832381 0.634
0.040391427 0.036774289 0.63300002
0.041662857 0.036832381 0.634
0.042870477 0.036832381 0.634
0.044078097 0.036832381 0.634
0.045285713 0.036832381 0.634
0.046493333 0.036832381 0.634
0.047776196 0.036890481 0.63500005
0.049062859 0.036948573 0.63600004
0.050432384 0.037064761 0.63800001
0.051647618 0.037064761 0.63800001
0.052945718 0.037122861 0.63900006
0.054162864 0.037122861 0.63900006
0.055553336 0.037239049 0.64100003
0.056774288 0.037239049 0.64100003
0.058085714 0.037297145 0.64200002
0.059308574 0.037297145 0.64200002
0.060720004 0.037413336 0.64400005
0.062042862 0.037471429 0.64500004
0.063467614 0.037587617 0.64700001
0.064700007 0.037587617 0.64700001
0.066441901 0.037878092 0.65200001
0.067683809 0.037878092 0.65200001
0.06903144 0.037936196 0.65300006
0.070275247 0.037936196 0.65300006
-0.032591429 0.040259998 0.671
-0.031313334 0.040259998 0.671
-0.029990477 0.040200002 0.67000002
-0.028714286 0.040200002 0.67000002
-0.027397145 0.040140003 0.66900003
-0.00434 0.03906 0.65100002
-0.0031047619 0.03912 0.65200001
-0.0018628573 0.03912 0.65200001
-0.00062000001 0.03906 0.65100002
0.00062000001 0.03906 0.65100002
0.0018514285 0.038880002 0.648
0.0030809524 0.038820002 0.64700001
0.0043000001 0.038700003 0.64500004
0.0055200006 0.038640004 0.64400005
0.006746667 0.038640004 0.64400005
0.0079485718 0.038520001 0.64200002
0.0091714282 0.038520001 0.64200002
0.010361905 0.038400002 0.64000005
0.011562858 0.038340002 0.63900006
0.01276 0.038279999 0.63800001
0.01393143 0.03816 0.63600004
0.015119049 0.038100004 0.63500005
0.016328571 0.038100004 0.63500005
0.017510476 0.038040001 0.634
0.018718094 0.038040001 0.634
0.019925715 0.038040001 0.634
0.021133333 0.038040001 0.634
0.022340951 0.038040001 0.634
0.023511428 0.037980001 0.63300002
0.024717143 0.037980001 0.63300002
0.025922857 0.037980001 0.63300002
0.027128572 0.037980001 0.63300002
0.028334286 0.037980001 0.63300002
0.02954 0.037980001 0.63300002
0.030745715 0.037980001 0.63300002
0.032001905 0.038040001 0.634
0.033209521 0.038040001 0.634
0.034417141 0.038040001 0.634
0.035624765 0.038040001 0.634
0.036832381 0.038040001 0.634
0.038040001 0.038040001 0.634
0.039247617 0.038040001 0.634
0.040391427 0.037980001 0.63300002
0.041662857 0.038040001 0.634
0.042870477 0.038040001 0.634
0.044078097 0.038040001 0.634
0.045285713 0.038040001 0.634
0.046493333 0.038040001 0.634
0.047776196 0.038100004 0.63500005
0.049062859 0.03816 0.63600004
0.050432384 0.038279999 0.63800001
0.051647618 0.038279999 0.63800001
0.052945718 0.038340002 0.63900006
0.054247621 0.038400002 0.64000005
0.055553336 0.038460001 0.64100003
0.056862857 0.038520001 0.64200002
0.05826667 0.038640004 0.64400005
0.059493337 0.038640004 0.64400005
0.060814288 0.038700003 0.64500004
0.062139049 0.038760003 0.64600003
0.063565716 0.038880002 0.648
0.065099999 0.03906 0.65100002
0.066441901 0.03912 0.65200001
0.067683809 0.03912 0.65200001
0.068925716 0.03912 0.65200001
-0.033920001 0.041600004 0.67200005
-0.032640003 0.041600004 0.67200005
-0.03136 0.041600004 0.67200005
-0.030035239 0.041538097 0.671
-0.028714286 0.04147619 0.67000002
-0.027438097 0.04147619 0.67000002
-0.0031047619 0.040361904 0.65200001
-0.0018628573 0.040361904 0.65200001
-0.0006209524 0.040361904 0.65200001
0.0006209524 0.040361904 0.65200001
0.0018571429 0.040238097 0.65000004
0.0030857143 0.040114284 0.648
0.004306667 0.039990477 0.64600003
0.0055285715 0.039928574 0.64500004
0.006746667 0.039866671 0.64400005
0.0079733338 0.039866671 0.64400005
0.0091714282 0.039742857 0.64200002
0.010378095 0.039680954 0.64100003
0.011562858 0.039557148 0.63900006
0.01276 0.039495237 0.63800001
0.01393143 0.039371431 0.63600004
0.015142857 0.039371431 0.63600004
0.016328571 0.039309524 0.63500005
0.017510476 0.039247617 0.634
0.018718094 0.039247617 0.634
0.019925715 0.039247617 0.634
0.021133333 0.039247617 0.634
0.022340951 0.039247617 0.634
0.023548571 0.039247617 0.634
0.024756189 0.039247617 0.634
0.025963809 0.039247617 0.634
0.027128572 0.039185714 0.63300002
0.028334286 0.039185714 0.63300002
0.02954 0.039185714 0.63300002
0.030745715 0.039185714 0.63300002
0.032001905 0.039247617 0.634
0.033209521 0.039247617 0.634
0.034417141 0.039247617 0.634
0.035624765 0.039247617 0.634
0.036832381 0.039247617 0.634
0.038040001 0.039247617 0.634
0.039247617 0.039247617 0.634
0.040455237 0.039247617 0.634
0.041662857 0.039247617 0.634
0.042870477 0.039247617 0.634
0.044078097 0.039247617 0.634
0.045357145 0.039309524 0.63500005
0.046566669 0.039309524 0.63500005
0.047776196 0.039309524 0.63500005
0.049217142 0.039495237 0.63800001
0.050432384 0.039495237 0.63800001
0.051728576 0.039557148 0.63900006
0.052945718 0.039557148 0.63900006
0.054247621 0.039619051 0.64000005
0.055553336 0.039680954 0.64100003
0.056862857 0.039742857 0.64200002
0.058085714 0.039742857 0.64200002
0.059493337 0.039866671 0.64400005
0.060720004 0.039866671 0.64400005
0.062235236 0.04005238 0.64700001
0.063761905 0.040238097 0.65000004
0.064999998 0.040238097 0.65000004
0.066340007 0.0403 0.65100002
0.067683809 0.040361904 0.65200001
0.068925716 0.040361904 0.65200001
-0.036480006 0.042880002 0.67200005
-0.035200004 0.042880002 0.67200005
-0.033920001 0.042880002 0.67200005
-0.032640003 0.042880002 0.67200005
-0.03136 0.042880002 0.67200005
-0.030080002 0.042880002 0.67200005
-0.028714286 0.042752381 0.67000002
-0.027438097 0.042752381 0.67000002
-0.0031238096 0.041859046 0.65600002
-0.0018742858 0.041859046 0.65600002
-0.00062380952 0.041795239 0.65500003
0.00062190479 0.041667622 0.65300006
0.0018628573 0.041603811 0.65200001
0.0030857143 0.041348573 0.648
0.004306667 0.041220952 0.64600003
0.0055285715 0.041157145 0.64500004
0.006746667 0.041093335 0.64400005
0.0079733338 0.041093335 0.64400005
0.0091714282 0.040965714 0.64200002
0.010378095 0.040901907 0.64100003
0.011580953 0.0408381 0.64000005
0.012780001 0.04077429 0.63900006
0.013975237 0.040710479 0.63800001
0.015142857 0.040582858 0.63600004
0.016354287 0.040582858 0.63600004
0.017538097 0.040519048 0.63500005
0.01874762 0.040519048 0.63500005
0.019925715 0.040455237 0.634
0.021133333 0.040455237 0.634
0.022340951 0.040455237 0.634
0.023548571 0.040455237 0.634
0.024756189 0.040455237 0.634
0.025963809 0.040455237 0.634
0.027171429 0.040455237 0.634
0.028334286 0.040391427 0.63300002
0.029586667 0.040455237 0.634
0.030794285 0.040455237 0.634
0.032001905 0.040455237 0.634
0.033261906 0.040519048 0.63500005
0.03447143 0.040519048 0.63500005
0.035680957 0.040519048 0.63500005
0.036890481 0.040519048 0.63500005
0.038100004 0.040519048 0.63500005
0.039371431 0.040582858 0.63600004
0.040582858 0.040582858 0.63600004
0.041794289 0.040582858 0.63600004
0.043005716 0.040582858 0.63600004
0.044217143 0.040582858 0.63600004
0.045428574 0.040582858 0.63600004
0.046640005 0.040582858 0.63600004
0.048001904 0.040710479 0.63800001
0.049294293 0.04077429 0.63900006
0.050511435 0.04077429 0.63900006
0.051728576 0.04077429 0.63900006
0.053028576 0.0408381 0.64000005
0.054332383 0.040901907 0.64100003
0.055640001 0.040965714 0.64200002
0.056862857 0.040965714 0.64200002
0.05826667 0.041093335 0.64400005
0.059493337 0.041093335 0.64400005
0.061002858 0.041284762 0.64700001
0.062235236 0.041284762 0.64700001
0.063565716 0.041348573 0.648
0.064800002 0.041348573 0.648
0.066034287 0.041348573 0.648
-0.036480006 0.044160005 0.67200005
-0.035200004 0.044160005 0.67200005
-0.034020953 0.044291429 0.67400002
-0.032737143 0.044291429 0.67400002
-0.031453334 0.044291429 0.67400002
-0.030169524 0.044291429 0.67400002
-0.028800001 0.044160005 0.67200005
-0.027520001 0.044160005 0.67200005
-0.0031285714 0.043174285 0.65700001
-0.0018742858 0.043108571 0.65600002
-0.00062476192 0.043108571 0.65600002
0.00062380952 0.043042861 0.65500003
0.0018657143 0.042911433 0.65300006
0.0031000001 0.042780001 0.65100002
0.0043133334 0.042517144 0.64700001
0.005537143 0.04245143 0.64600003
0.006757143 0.042385716 0.64500004
0.0079733338 0.042320006 0.64400005
0.0092000002 0.042320006 0.64400005
0.010426668 0.042320006 0.64400005
0.011617143 0.04218857 0.64200002
0.01282 0.04212286 0.64100003
0.014019049 0.042057145 0.64000005
0.015214287 0.041991431 0.63900006
0.01643143 0.041991431 0.63900006
0.017620953 0.041925713 0.63800001
0.018836191 0.041925713 0.63800001
0.019957144 0.041728575 0.63500005
0.021166669 0.041728575 0.63500005
0.022376193 0.041728575 0.63500005
0.023585714 0.041728575 0.63500005
0.02479524 0.041728575 0.63500005
0.026004763 0.041728575 0.63500005
0.027214289 0.041728575 0.63500005
0.028423812 0.041728575 0.63500005
0.029633334 0.041728575 0.63500005
0.030842859 0.041728575 0.63500005
0.032052383 0.041728575 0.63500005
0.033261906 0.041728575 0.63500005
0.03447143 0.041728575 0.63500005
0.035680957 0.041728575 0.63500005
0.036948573 0.041794289 0.63600004
0.03816 0.041794289 0.63600004
0.039371431 0.041794289 0.63600004
0.040582858 0.041794289 0.63600004
0.041794289 0.041794289 0.63600004
0.043140952 0.041925713 0.63800001
0.04435619 0.041925713 0.63800001
0.045571432 0.041925713 0.63800001
0.046786666 0.041925713 0.63800001
0.048001904 0.041925713 0.63800001
0.049294293 0.041991431 0.63900006
0.050511435 0.041991431 0.63900006
0.051809527 0.042057145 0.64000005
0.05311143 0.04212286 0.64100003
0.054332383 0.04212286 0.64100003
0.055813335 0.042320006 0.64400005
0.057040006 0.042320006 0.64400005
0.058447622 0.04245143 0.64600003
0.059678096 0.04245143 0.64600003
0.061002858 0.042517144 0.64700001
0.062235236 0.042517144 0.64700001
0.063467614 0.042517144 0.64700001
0.064700007 0.042517144 0.64700001
0.066034287 0.042582858 0.648
-0.03792857 0.045642857 0.67500001
-0.036642861 0.045642857 0.67500001
-0.035304762 0.045575239 0.67400002
-0.034020953 0.045575239 0.67400002
-0.032737143 0.045575239 0.67400002
-0.031453334 0.045575239 0.67400002
-0.030169524 0.045575239 0.67400002
-0.028800001 0.04544 0.67200005
-0.027520001 0.04544 0.67200005
-0.026240002 0.04544 0.67200005
-0.0043866672 0.044493336 0.65800005
-0.0031333335 0.044493336 0.65800005
-0.0018771428 0.044425715 0.65700001
-0.00062476192 0.044358093 0.65600002
0.00062476192 0.044358093 0.65600002
0.0018714287 0.044290476 0.65500003
0.0031000001 0.044020001 0.65100002
0.0043200003 0.04381714 0.648
0.0055457144 0.043749522 0.64700001
0.006757143 0.043614287 0.64500004
0.0079857148 0.043614287 0.64500004
0.0092000002 0.043546669 0.64400005
0.010426668 0.043546669 0.64400005
0.011617143 0.04341143 0.64200002
0.01282 0.043343812 0.64100003
0.014040953 0.043343812 0.64100003
0.015238097 0.043276191 0.64000005
0.01643143 0.043208573 0.63900006
0.017648574 0.043208573 0.63900006
0.018836191 0.043140952 0.63800001
0.019988572 0.043005716 0.63600004
0.021166669 0.042938098 0.63500005
0.02241143 0.043005716 0.63600004
0.023585714 0.042938098 0.63500005
0.02479524 0.042938098 0.63500005
0.026004763 0.042938098 0.63500005
0.027214289 0.042938098 0.63500005
0.028423812 0.042938098 0.63500005
0.029633334 0.042938098 0.63500005
0.030842859 0.042938098 0.63500005
0.032052383 0.042938098 0.63500005
0.033314288 0.043005716 0.63600004
0.034525715 0.043005716 0.63600004
0.035737146 0.043005716 0.63600004
0.036948573 0.043005716 0.63600004
0.03816 0.043005716 0.63600004
0.039371431 0.043005716 0.63600004
0.040582858 0.043005716 0.63600004
0.041794289 0.043005716 0.63600004
0.043140952 0.043140952 0.63800001
0.04435619 0.043140952 0.63800001
0.045571432 0.043140952 0.63800001
0.046860002 0.043208573 0.63900006
0.048077144 0.043208573 0.63900006
0.049371433 0.043276191 0.64000005
0.050590478 0.043276191 0.64000005
0.051809527 0.043276191 0.64000005
0.05311143 0.043343812 0.64100003
0.054417145 0.04341143 0.64200002
0.055813335 0.043546669 0.64400005
0.057128575 0.043614287 0.64500004
0.058447622 0.043681905 0.64600003
0.05977048 0.043749522 0.64700001
0.061097141 0.04381714 0.648
0.062331427 0.04381714 0.648
0.063761905 0.043952383 0.65000004
0.064999998 0.043952383 0.65000004
0.066238098 0.043952383 0.65000004
-0.03792857 0.046928573 0.67500001
-0.036642861 0.046928573 0.67500001
-0.035357144 0.046928573 0.67500001
-0.034071431 0.046928573 0.67500001
-0.032737143 0.046859052 0.67400002
-0.031453334 0.046859052 0.67400002
-0.030169524 0.046859052 0.67400002
-0.028800001 0.046720002 0.67200005
-0.027520001 0.046720002 0.67200005
-0.026240002 0.046720002 0.67200005
-0.0043866672 0.045746669 0.65800005
-0.0031333335 0.045746669 0.65800005
-0.0018771428 0.04567714 0.65700001
-0.00062571431 0.04567714 0.65700001
0.00062476192 0.045607619 0.65600002
0.0018742858 0.045607619 0.65600002
0.0031000001 0.045260001 0.65100002
0.0043200003 0.045051429 0.648
0.0055457144 0.044981908 0.64700001
0.0067676194 0.044912383 0.64600003
0.0079980958 0.044912383 0.64600003
0.0092142858 0.044842858 0.64500004
0.010442858 0.044842858 0.64500004
0.011653334 0.044773336 0.64400005
0.01284 0.044634286 0.64200002
0.014062857 0.044634286 0.64200002
0.015261906 0.044564765 0.64100003
0.016457144 0.044495244 0.64000005
0.017648574 0.044425718 0.63900006
0.018865716 0.044425718 0.63900006
0.020051429 0.04435619 0.63800001
0.021200001 0.044217143 0.63600004
0.02241143 0.044217143 0.63600004
0.023622857 0.044217143 0.63600004
0.02479524 0.044147622 0.63500005
0.026004763 0.044147622 0.63500005
0.027214289 0.044147622 0.63500005
0.028423812 0.044147622 0.63500005
0.029680001 0.044217143 0.63600004
0.030842859 0.044147622 0.63500005
0.032052383 0.044147622 0.63500005
0.033314288 0.044217143 0.63600004
0.034525715 0.044217143 0.63600004
0.035737146 0.044217143 0.63600004
0.036948573 0.044217143 0.63600004
0.03816 0.044217143 0.63600004
0.039371431 0.044217143 0.63600004
0.040582858 0.044217143 0.63600004
0.041925713 0.04435619 0.63800001
0.043140952 0.04435619 0.63800001
0.04435619 0.04435619 0.63800001
0.045571432 0.04435619 0.63800001
0.046860002 0.044425718 0.63900006
0.048077144 0.044425718 0.63900006
0.049371433 0.044495244 0.64000005
0.050590478 0.044495244 0.64000005
0.051809527 0.044495244 0.64000005
0.05311143 0.044564765 0.64100003
0.054417145 0.044634286 0.64200002
0.055813335 0.044773336 0.64400005
0.057128575 0.044842858 0.64500004
0.058447622 0.044912383 0.64600003
0.05977048 0.044981908 0.64700001
0.061097141 0.045051429 0.648
0.062331427 0.045051429 0.648
0.063761905 0.045190476 0.65000004
0.064999998 0.045190476 0.65000004
0.066441901 0.045329522 0.65200001
0.067787625 0.045399051 0.65300006
0.069242857 0.045538098 0.65500003
0.070490479 0.045538098 0.65500003
0.071738102 0.045538098 0.65500003
-0.03792857 0.048214287 0.67500001
-0.036642861 0.048214287 0.67500001
-0.035357144 0.048214287 0.67500001
-0.034071431 0.048214287 0.67500001
-0.032785714 0.048214287 0.67500001
-0.031500001 0.048214287 0.67500001
-0.030214285 0.048214287 0.67500001
-0.028885717 0.048142858 0.67400002
-0.027520001 0.048000004 0.67200005
-0.026318096 0.048142858 0.67400002
-0.024922857 0.047928572 0.671
-0.023644762 0.047928572 0.671
-0.0044000004 0.04714286 0.66000003
-0.0031333335 0.047000002 0.65800005
-0.0018800002 0.047000002 0.65800005
-0.00062571431 0.046928573 0.65700001
0.00062571431 0.046928573 0.65700001
0.0018742858 0.046857145 0.65600002
0.0031000001 0.046500001 0.65100002
0.0043200003 0.046285711 0.648
0.0055457144 0.046214286 0.64700001
0.0067780954 0.046214286 0.64700001
0.0080104759 0.046214286 0.64700001
0.0092285722 0.046142858 0.64600003
0.010442858 0.046071433 0.64500004
0.011653334 0.046000004 0.64400005
0.012880001 0.046000004 0.64400005
0.014062857 0.045857143 0.64200002
0.015261906 0.045785714 0.64100003
0.016482858 0.045785714 0.64100003
0.017676191 0.045714289 0.64000005
0.018865716 0.04564286 0.63900006
0.020051429 0.045571432 0.63800001
0.021200001 0.045428574 0.63600004
0.022481905 0.045571432 0.63800001
0.023622857 0.045428574 0.63600004
0.024834288 0.045428574 0.63600004
0.026004763 0.045357145 0.63500005
0.027214289 0.045357145 0.63500005
0.028468573 0.045428574 0.63600004
0.029680001 0.045428574 0.63600004
0.03089143 0.045428574 0.63600004
0.032102857 0.045428574 0.63600004
0.033314288 0.045428574 0.63600004
0.034525715 0.045428574 0.63600004
0.035737146 0.045428574 0.63600004
0.036948573 0.045428574 0.63600004
0.03816 0.045428574 0.63600004
0.039371431 0.045428574 0.63600004
0.040582858 0.045428574 0.63600004
0.041925713 0.045571432 0.63800001
0.043140952 0.045571432 0.63800001
0.04435619 0.045571432 0.63800001
0.045571432 0.045571432 0.63800001
0.046860002 0.04564286 0.63900006
0.048077144 0.04564286 0.63900006
0.049371433 0.045714289 0.64000005
0.050590478 0.045714289 0.64000005
0.051890481 0.045785714 0.64100003
0.053194284 0.045857143 0.64200002
0.054417145 0.045857143 0.64200002
0.055813335 0.046000004 0.64400005
0.057128575 0.046071433 0.64500004
0.058538094 0.046214286 0.64700001
0.059862856 0.046285711 0.648
0.061097141 0.046285711 0.648
0.062523812 0.046428576 0.65000004
0.063859999 0.046500001 0.65100002
0.065200001 0.04657143 0.65200001
0.066543818 0.046642862 0.65300006
0.067787625 0.046642862 0.65300006
0.06903144 0.046642862 0.65300006
0.070275247 0.046642862 0.65300006
0.071519054 0.046642862 0.65300006
-0.038097143 0.04972 0.67800003
-0.036697146 0.04957334 0.67600006
-0.035357144 0.049500003 0.67500001
-0.034071431 0.049500003 0.67500001
-0.032785714 0.049500003 0.67500001
-0.031500001 0.049500003 0.67500001
-0.030214285 0.049500003 0.67500001
-0.02892857 0.049500003 0.67500001
-0.027601905 0.049426667 0.67400002
-0.026318096 0.049426667 0.67400002
-0.024960002 0.049280003 0.67200005
-0.023680001 0.049280003 0.67200005
-0.0044000004 0.048400003 0.66000003
-0.0031428572 0.048400003 0.66000003
-0.0018800002 0.048253335 0.65800005
-0.00062571431 0.048179999 0.65700001
0.00062571431 0.048179999 0.65700001
0.0018742858 0.048106667 0.65600002
0.0031047619 0.047813334 0.65200001
0.0043333336 0.047666669 0.65000004
0.0055542854 0.04752 0.648
0.0067780954 0.047446668 0.64700001
0.0080104759 0.047446668 0.64700001
0.0092285722 0.047373332 0.64600003
0.010442858 0.047300003 0.64500004
0.011653334 0.047226671 0.64400005
0.012880001 0.047226671 0.64400005
0.014106668 0.047226671 0.64400005
0.015285715 0.047080003 0.64200002
0.016482858 0.047006667 0.64100003
0.017676191 0.046933334 0.64000005
0.018865716 0.046860002 0.63900006
0.020082859 0.046860002 0.63900006
0.021266667 0.046786666 0.63800001
0.022481905 0.046786666 0.63800001
0.023697143 0.046786666 0.63800001
0.024834288 0.046640005 0.63600004
0.026045715 0.046640005 0.63600004
0.027257143 0.046640005 0.63600004
0.028468573 0.046640005 0.63600004
0.029680001 0.046640005 0.63600004
0.03089143 0.046640005 0.63600004
0.032102857 0.046640005 0.63600004
0.033314288 0.046640005 0.63600004
0.034525715 0.046640005 0.63600004
0.035737146 0.046640005 0.63600004
0.036948573 0.046640005 0.63600004
0.03816 0.046640005 0.63600004
0.039371431 0.046640005 0.63600004
0.040582858 0.046640005 0.63600004
0.041925713 0.046786666 0.63800001
0.043140952 0.046786666 0.63800001
0.04435619 0.046786666 0.63800001
0.04564286 0.046860002 0.63900006
0.046860002 0.046860002 0.63900006
0.048152387 0.046933334 0.64000005
0.049371433 0.046933334 0.64000005
0.050590478 0.046933334 0.64000005
0.051890481 0.047006667 0.64100003
0.053194284 0.047080003 0.64200002
0.054586671 0.047226671 0.64400005
0.055813335 0.047226671 0.64400005
0.057128575 0.047300003 0.64500004
0.058538094 0.047446668 0.64700001
0.059862856 0.04752 0.648
0.061285719 0.047666669 0.65000004
0.062523812 0.047666669 0.65000004
0.063958094 0.047813334 0.65200001
0.065200001 0.047813334 0.65200001
0.066543818 0.047886673 0.65300006
0.067787625 0.047886673 0.65300006
0.06903144 0.047886673 0.65300006
0.070275247 0.047886673 0.65300006
0.071519054 0.047886673 0.65300006
-0.038097143 0.051011432 0.67800003
-0.036805719 0.051011432 0.67800003
-0.035409529 0.050860956 0.67600006
-0.034071431 0.050785713 0.67500001
-0.032785714 0.050785713 0.67500001
-0.031500001 0.050785713 0.67500001
-0.030214285 0.050785713 0.67500001
-0.02892857 0.050785713 0.67500001
-0.027601905 0.050710477 0.67400002
-0.026240002 0.050560005 0.67200005
-0.024960002 0.050560005 0.67200005
-0.023680001 0.050560005 0.67200005
-0.0031428572 0.049657144 0.66000003
-0.0018800002 0.049506668 0.65800005
-0.0006266667 0.049506668 0.65800005
0.00062571431 0.049431428 0.65700001
0.0018742858 0.049356192 0.65600002
0.0031000001 0.048980001 0.65100002
0.0043200003 0.048754286 0.648
0.0055542854 0.048754286 0.648
0.0067780954 0.04867905 0.64700001
0.0080104759 0.04867905 0.64700001
0.0092428569 0.04867905 0.64700001
0.010459048 0.04860381 0.64600003
0.011671429 0.048528574 0.64500004
0.012880001 0.048453335 0.64400005
0.014106668 0.048453335 0.64400005
0.015285715 0.048302859 0.64200002
0.016508572 0.048302859 0.64200002
0.017703811 0.048227623 0.64100003
0.018895241 0.048152387 0.64000005
0.020082859 0.048077144 0.63900006
0.021300001 0.048077144 0.63900006
0.022481905 0.048001904 0.63800001
0.023697143 0.048001904 0.63800001
0.024912382 0.048001904 0.63800001
0.02612762 0.048001904 0.63800001
0.027257143 0.047851432 0.63600004
0.028558096 0.048001904 0.63800001
0.029773334 0.048001904 0.63800001
0.030988572 0.048001904 0.63800001
0.032102857 0.047851432 0.63600004
0.033314288 0.047851432 0.63600004
0.034525715 0.047851432 0.63600004
0.035849527 0.048001904 0.63800001
0.037064761 0.048001904 0.63800001
0.03816 0.047851432 0.63600004
0.039495237 0.048001904 0.63800001
0.040710479 0.048001904 0.63800001
0.041925713 0.048001904 0.63800001
0.043208573 0.048077144 0.63900006
0.044425718 0.048077144 0.63900006
0.04564286 0.048077144 0.63900006
0.046860002 0.048077144 0.63900006
0.048152387 0.048152387 0.64000005
0.049371433 0.048152387 0.64000005
0.050669525 0.048227623 0.64100003
0.051971432 0.048302859 0.64200002
0.053194284 0.048302859 0.64200002
0.054586671 0.048453335 0.64400005
0.055813335 0.048453335 0.64400005
0.057128575 0.048528574 0.64500004
0.058538094 0.04867905 0.64700001
0.060047623 0.048904765 0.65000004
0.061285719 0.048904765 0.65000004
0.062619999 0.048980001 0.65100002
0.063958094 0.049055237 0.65200001
0.065200001 0.049055237 0.65200001
0.066543818 0.049130481 0.65300006
0.067787625 0.049130481 0.65300006
0.069242857 0.049280953 0.65500003
0.070490479 0.049280953 0.65500003
-0.038097143 0.05230286 0.67800003
-0.036805719 0.05230286 0.67800003
-0.035514288 0.05230286 0.67800003
-0.034121908 0.052148577 0.67600006
-0.032834288 0.052148577 0.67600006
-0.031546671 0.052148577 0.67600006
-0.03025905 0.052148577 0.67600006
-0.02897143 0.052148577 0.67600006
-0.027601905 0.051994286 0.67400002
-0.026318096 0.051994286 0.67400002
-0.025034286 0.051994286 0.67400002
-0.0031428572 0.050914288 0.66000003
-0.0018800002 0.050760005 0.65800005
-0.0006266667 0.050760005 0.65800005
0.0006266667 0.050760005 0.65800005
0.0018771428 0.050682854 0.65700001
0.0031000001 0.050220001 0.65100002
0.0043200003 0.049988572 0.648
0.0055542854 0.049988572 0.648
0.0067780954 0.049911428 0.64700001
0.0080104759 0.049911428 0.64700001
0.0092428569 0.049911428 0.64700001
0.010459048 0.049834289 0.64600003
0.011689524 0.049834289 0.64600003
0.0129 0.049757145 0.64500004
0.014106668 0.049680006 0.64400005
0.015333335 0.049680006 0.64400005
0.016508572 0.049525715 0.64200002
0.017703811 0.049448572 0.64100003
0.018924762 0.049448572 0.64100003
0.020145716 0.049448572 0.64100003
0.021300001 0.049294293 0.63900006
0.022517145 0.049294293 0.63900006
0.023734286 0.049294293 0.63900006
0.024912382 0.049217142 0.63800001
0.02612762 0.049217142 0.63800001
0.027342858 0.049217142 0.63800001
0.028602859 0.049294293 0.63900006
0.029773334 0.049217142 0.63800001
0.030988572 0.049217142 0.63800001
0.032203808 0.049217142 0.63800001
0.033419047 0.049217142 0.63800001
0.034634285 0.049217142 0.63800001
0.035849527 0.049217142 0.63800001
0.037064761 0.049217142 0.63800001
0.038279999 0.049217142 0.63800001
0.039495237 0.049217142 0.63800001
0.040710479 0.049217142 0.63800001
0.041925713 0.049217142 0.63800001
0.043208573 0.049294293 0.63900006
0.044425718 0.049294293 0.63900006
0.04564286 0.049294293 0.63900006
0.046860002 0.049294293 0.63900006
0.048152387 0.049371433 0.64000005
0.049448572 0.049448572 0.64100003
0.050669525 0.049448572 0.64100003
0.051971432 0.049525715 0.64200002
0.053194284 0.049525715 0.64200002
0.054586671 0.049680006 0.64400005
0.055900004 0.049757145 0.64500004
0.057217143 0.049834289 0.64600003
0.058538094 0.049911428 0.64700001
0.060047623 0.050142858 0.65000004
0.061380003 0.050220001 0.65100002
0.062619999 0.050220001 0.65100002
0.063958094 0.050297141 0.65200001
0.065200001 0.050297141 0.65200001
0.066543818 0.050374292 0.65300006
0.067787625 0.050374292 0.65300006
0.069242857 0.050528575 0.65500003
0.070490479 0.050528575 0.65500003
-0.036805719 0.053594287 0.67800003
-0.035566669 0.053673334 0.67900002
-0.03422286 0.053594287 0.67800003
-0.032834288 0.053436194 0.67600006
-0.031640001 0.053594287 0.67800003
-0.030348573 0.053594287 0.67800003
-0.02897143 0.053436194 0.67600006
-0.027642857 0.053357143 0.67500001
-0.026318096 0.053278096 0.67400002
-0.025034286 0.053278096 0.67400002
-0.0031428572 0.052171431 0.66000003
-0.0018800002 0.052013338 0.65800005
-0.0006266667 0.052013338 0.65800005
0.0006266667 0.052013338 0.65800005
0.0018771428 0.051934287 0.65700001
0.0031000001 0.051460002 0.65100002
0.0043200003 0.051222857 0.648
0.0055542854 0.051222857 0.648
0.0067780954 0.05114381 0.64700001
0.0080104759 0.05114381 0.64700001
0.0092428569 0.05114381 0.64700001
0.010459048 0.051064763 0.64600003
0.011689524 0.051064763 0.64600003
0.0129 0.050985716 0.64500004
0.014106668 0.050906669 0.64400005
0.015333335 0.050906669 0.64400005
0.016508572 0.050748575 0.64200002
0.017731428 0.050748575 0.64200002
0.018954286 0.050748575 0.64200002
0.020145716 0.050669525 0.64100003
0.021333335 0.050590478 0.64000005
0.022552382 0.050590478 0.64000005
0.023734286 0.050511435 0.63900006
0.024951432 0.050511435 0.63900006
0.026168574 0.050511435 0.63900006
0.027385717 0.050511435 0.63900006
0.028602859 0.050511435 0.63900006
0.029820003 0.050511435 0.63900006
0.030988572 0.050432384 0.63800001
0.032203808 0.050432384 0.63800001
0.033419047 0.050432384 0.63800001
0.034634285 0.050432384 0.63800001
0.035849527 0.050432384 0.63800001
0.037064761 0.050432384 0.63800001
0.038279999 0.050432384 0.63800001
0.039495237 0.050432384 0.63800001
0.040710479 0.050432384 0.63800001
0.041925713 0.050432384 0.63800001
0.043208573 0.050511435 0.63900006
0.044425718 0.050511435 0.63900006
0.04564286 0.050511435 0.63900006
0.046860002 0.050511435 0.63900006
0.048152387 0.050590478 0.64000005
0.049371433 0.050590478 0.64000005
0.050669525 0.050669525 0.64100003
0.051971432 0.050748575 0.64200002
0.053194284 0.050748575 0.64200002
0.054586671 0.050906669 0.64400005
0.055900004 0.050985716 0.64500004
0.057217143 0.051064763 0.64600003
0.05862857 0.051222857 0.648
0.060047623 0.051380955 0.65000004
0.061380003 0.051460002 0.65100002
0.062619999 0.051460002 0.65100002
0.063958094 0.051539049 0.65200001
0.065200001 0.051539049 0.65200001
0.066543818 0.051618099 0.65300006
0.067787625 0.051618099 0.65300006
0.06903144 0.051618099 0.65300006
0.070490479 0.051776193 0.65500003
-0.035566669 0.054966666 0.67900002
-0.03422286 0.054885715 0.67800003
-0.032931432 0.054885715 0.67800003
-0.031640001 0.054885715 0.67800003
-0.030348573 0.054885715 0.67800003
-0.029057145 0.054885715 0.67800003
-0.027683811 0.054723814 0.67600006
-0.026396191 0.054723814 0.67600006
-0.025108574 0.054723814 0.67600006
-0.0031428572 0.053428572 0.66000003
-0.0018800002 0.053266671 0.65800005
-0.00062857143 0.053428572 0.66000003
0.0006266667 0.053266671 0.65800005
0.0018771428 0.053185716 0.65700001
0.0031047619 0.052780952 0.65200001
0.0043333336 0.052619051 0.65000004
0.0055542854 0.052457143 0.648
0.0067885718 0.052457143 0.648
0.0080104759 0.052376192 0.64700001
0.0092428569 0.052376192 0.64700001
0.010475239 0.052376192 0.64700001
0.011689524 0.052295242 0.64600003
0.012920001 0.052295242 0.64600003
0.014128572 0.052214291 0.64500004
0.015333335 0.052133337 0.64400005
0.016508572 0.051971432 0.64200002
0.017731428 0.051971432 0.64200002
0.018954286 0.051971432 0.64200002
0.020145716 0.051890481 0.64100003
0.021333335 0.051809527 0.64000005
0.022552382 0.051809527 0.64000005
0.023734286 0.051728576 0.63900006
0.024990477 0.051809527 0.64000005
0.026168574 0.051728576 0.63900006
0.027385717 0.051728576 0.63900006
0.028602859 0.051728576 0.63900006
0.029820003 0.051728576 0.63900006
0.031037146 0.051728576 0.63900006
0.032203808 0.051647618 0.63800001
0.033419047 0.051647618 0.63800001
0.034634285 0.051647618 0.63800001
0.035849527 0.051647618 0.63800001
0.037064761 0.051647618 0.63800001
0.038279999 0.051647618 0.63800001
0.039495237 0.051647618 0.63800001
0.04077429 0.051728576 0.63900006
0.041991431 0.051728576 0.63900006
0.043208573 0.051728576 0.63900006
0.044425718 0.051728576 0.63900006
0.04564286 0.051728576 0.63900006
0.046933334 0.051809527 0.64000005
0.048152387 0.051809527 0.64000005
0.049371433 0.051809527 0.64000005
0.050669525 0.051890481 0.64100003
0.051890481 0.051890481 0.64100003
0.053194284 0.051971432 0.64200002
0.054417145 0.051971432 0.64200002
0.055900004 0.052214291 0.64500004
0.057305716 0.052376192 0.64700001
0.05862857 0.052457143 0.648
0.059862856 0.052457143 0.648
0.061380003 0.052700002 0.65100002
0.062716186 0.052780952 0.65200001
0.063958094 0.052780952 0.65200001
0.065200001 0.052780952 0.65200001
0.066441901 0.052780952 0.65200001
0.067683809 0.052780952 0.65200001
0.06903144 0.05286191 0.65300006
-0.034323812 0.056342855 0.68000001
-0.032980002 0.056260001 0.67900002
-0.031686667 0.056260001 0.67900002
-0.030393332 0.056260001 0.67900002
-0.029057145 0.056177147 0.67800003
-0.027765715 0.056177147 0.67800003
-0.026474288 0.056177147 0.67800003
-0.025182858 0.056177147 0.67800003
-0.0018800002 0.054520003 0.65800005
-0.00062857143 0.054685716 0.66000003
0.0006266667 0.054520003 0.65800005
0.0018771428 0.054437142 0.65700001
0.0031238096 0.054354288 0.65600002
0.0043466669 0.054022856 0.65200001
0.0055800001 0.053940002 0.65100002
0.0067885718 0.053691428 0.648
0.0080228569 0.053691428 0.648
0.0092428569 0.053608574 0.64700001
0.010475239 0.053608574 0.64700001
0.011689524 0.053525716 0.64600003
0.012920001 0.053525716 0.64600003
0.014128572 0.053442858 0.64500004
0.015333335 0.053360004 0.64400005
0.016508572 0.053194284 0.64200002
0.017731428 0.053194284 0.64200002
0.018954286 0.053194284 0.64200002
0.020177143 0.053194284 0.64200002
0.021333335 0.053028576 0.64000005
0.022552382 0.053028576 0.64000005
0.023734286 0.052945718 0.63900006
0.024990477 0.053028576 0.64000005
0.026209526 0.053028576 0.64000005
0.027385717 0.052945718 0.63900006
0.028602859 0.052945718 0.63900006
0.029820003 0.052945718 0.63900006
0.031037146 0.052945718 0.63900006
0.032203808 0.052862857 0.63800001
0.033419047 0.052862857 0.63800001
0.034634285 0.052862857 0.63800001
0.035849527 0.052862857 0.63800001
0.037064761 0.052862857 0.63800001
0.038279999 0.052862857 0.63800001
0.039557148 0.052945718 0.63900006
0.04077429 0.052945718 0.63900006
0.042057145 0.053028576 0.64000005
0.043276191 0.053028576 0.64000005
0.044495244 0.053028576 0.64000005
0.045714289 0.053028576 0.64000005
0.047006667 0.05311143 0.64100003
0.048227623 0.05311143 0.64100003
0.049448572 0.05311143 0.64100003
0.050748575 0.053194284 0.64200002
0.052133337 0.053360004 0.64400005
0.053360004 0.053360004 0.64400005
0.054586671 0.053360004 0.64400005
0.055900004 0.053442858 0.64500004
0.057305716 0.053608574 0.64700001
0.058809526 0.053857144 0.65000004
0.060140003 0.053940002 0.65100002
0.06147429 0.054022856 0.65200001
0.062716186 0.054022856 0.65200001
0.064056195 0.054105718 0.65300006
0.065300003 0.054105718 0.65300006
0.066543818 0.054105718 0.65300006
0.067787625 0.054105718 0.65300006
-0.034323812 0.057638094 0.68000001
-0.033028573 0.057638094 0.68000001
-0.031686667 0.057553336 0.67900002
-0.030393332 0.057553336 0.67900002
-0.029100001 0.057553336 0.67900002
-0.027806668 0.057553336 0.67900002
-0.026513334 0.057553336 0.67900002
-0.025220001 0.057553336 0.67900002
-0.023926668 0.057553336 0.67900002
-0.022633335 0.057553336 0.67900002
-0.00062857143 0.05594286 0.66000003
0.00062571431 0.055688571 0.65700001
0.0018771428 0.055688571 0.65700001
0.0031238096 0.05560381 0.65600002
0.0043533337 0.055349529 0.65300006
0.0055800001 0.055180002 0.65100002
0.0068095243 0.05509524 0.65000004
0.0080228569 0.054925714 0.648
0.0092571434 0.054925714 0.648
0.010475239 0.054840952 0.64700001
0.011689524 0.054756194 0.64600003
0.0129 0.054671429 0.64500004
0.014106668 0.054586671 0.64400005
0.015333335 0.054586671 0.64400005
0.016508572 0.054417145 0.64200002
0.017731428 0.054417145 0.64200002
0.018954286 0.054417145 0.64200002
0.020177143 0.054417145 0.64200002
0.021400001 0.054417145 0.64200002
0.022552382 0.054247621 0.64000005
0.023771429 0.054247621 0.64000005
0.025029525 0.054332383 0.64100003
0.026209526 0.054247621 0.64000005
0.027428573 0.054247621 0.64000005
0.02864762 0.054247621 0.64000005
0.029866669 0.054247621 0.64000005
0.031037146 0.054162864 0.63900006
0.03225429 0.054162864 0.63900006
0.033471432 0.054162864 0.63900006
0.034688573 0.054162864 0.63900006
0.035905719 0.054162864 0.63900006
0.037122861 0.054162864 0.63900006
0.038340002 0.054162864 0.63900006
0.039619051 0.054247621 0.64000005
0.0408381 0.054247621 0.64000005
0.04212286 0.054332383 0.64100003
0.043343812 0.054332383 0.64100003
0.044564765 0.054332383 0.64100003
0.045785714 0.054332383 0.64100003
0.047006667 0.054332383 0.64100003
0.048227623 0.054332383 0.64100003
0.049525715 0.054417145 0.64200002
0.050748575 0.054417145 0.64200002
0.052133337 0.054586671 0.64400005
0.053442858 0.054671429 0.64500004
0.054756194 0.054756194 0.64600003
0.056073334 0.054840952 0.64700001
0.057394285 0.054925714 0.648
0.058809526 0.05509524 0.65000004
0.060140003 0.055180002 0.65100002
0.06147429 0.05526476 0.65200001
0.062716186 0.05526476 0.65200001
0.064056195 0.055349529 0.65300006
0.065300003 0.055349529 0.65300006
0.066543818 0.055349529 0.65300006
0.067787625 0.055349529 0.65300006
-0.033028573 0.058933333 0.68000001
-0.031686667 0.058846667 0.67900002
-0.030393332 0.058846667 0.67900002
-0.029100001 0.058846667 0.67900002
-0.027806668 0.058846667 0.67900002
-0.026513334 0.058846667 0.67900002
-0.025182858 0.058760002 0.67800003
-0.023891428 0.058760002 0.67800003
-0.022600001 0.058760002 0.67800003
-0.00062857143 0.0572 0.66000003
0.0006266667 0.057026673 0.65800005
0.0018771428 0.056939997 0.65700001
0.0031285714 0.056939997 0.65700001
0.0043666665 0.05676667 0.65500003
0.0055885715 0.056506667 0.65200001
0.0068200002 0.056420002 0.65100002
0.0080476198 0.056333333 0.65000004
0.0092571434 0.056159999 0.648
0.010491428 0.056159999 0.648
0.011707619 0.056073334 0.64700001
0.012920001 0.055986669 0.64600003
0.014128572 0.055900004 0.64500004
0.015333335 0.055813335 0.64400005
0.016508572 0.055640001 0.64200002
0.017731428 0.055640001 0.64200002
0.018954286 0.055640001 0.64200002
0.020177143 0.055640001 0.64200002
0.021400001 0.055640001 0.64200002
0.02258762 0.055553336 0.64100003
0.023808572 0.055553336 0.64100003
0.025029525 0.055553336 0.64100003
0.026250478 0.055553336 0.64100003
0.027428573 0.055466671 0.64000005
0.02864762 0.055466671 0.64000005
0.029866669 0.055466671 0.64000005
0.031085717 0.055466671 0.64000005
0.03225429 0.055380005 0.63900006
0.033471432 0.055380005 0.63900006
0.034688573 0.055380005 0.63900006
0.035905719 0.055380005 0.63900006
0.037180953 0.055466671 0.64000005
0.038400002 0.055466671 0.64000005
0.039619051 0.055466671 0.64000005
0.040901907 0.055553336 0.64100003
0.04212286 0.055553336 0.64100003
0.043343812 0.055553336 0.64100003
0.044564765 0.055553336 0.64100003
0.045785714 0.055553336 0.64100003
0.047006667 0.055553336 0.64100003
0.048227623 0.055553336 0.64100003
0.049525715 0.055640001 0.64200002
0.050748575 0.055640001 0.64200002
0.052133337 0.055813335 0.64400005
0.053442858 0.055900004 0.64500004
0.054756194 0.055986669 0.64600003
0.056073334 0.056073334 0.64700001
0.057394285 0.056159999 0.648
0.058809526 0.056333333 0.65000004
0.060140003 0.056420002 0.65100002
0.06147429 0.056506667 0.65200001
0.062716186 0.056506667 0.65200001
0.064056195 0.056593336 0.65300006
0.065300003 0.056593336 0.65300006
0.066543818 0.056593336 0.65300006
-0.033028573 0.060228571 0.68000001
-0.031686667 0.060140003 0.67900002
-0.030393332 0.060140003 0.67900002
-0.029100001 0.060140003 0.67900002
-0.027806668 0.060140003 0.67900002
-0.026513334 0.060140003 0.67900002
-0.025182858 0.060051434 0.67800003
-0.023891428 0.060051434 0.67800003
-0.022600001 0.060051434 0.67800003
-0.008456191 0.060494285 0.68300003
-0.0071447622 0.060405716 0.68200004
-0.005828571 0.060228571 0.68000001
-0.0045333337 0.060228571 0.68000001
-0.00062857143 0.058457144 0.66000003
0.0006266667 0.058280002 0.65800005
0.0018800002 0.058280002 0.65800005
0.0031285714 0.05819143 0.65700001
0.0043733334 0.058102861 0.65600002
0.005597143 0.057837147 0.65300006
0.0068304762 0.057748571 0.65200001
0.0080599999 0.057660002 0.65100002
0.0092571434 0.057394285 0.648
0.010491428 0.057394285 0.648
0.011707619 0.057305716 0.64700001
0.012920001 0.057217143 0.64600003
0.014128572 0.057128575 0.64500004
0.015333335 0.057040006 0.64400005
0.016559999 0.057040006 0.64400005
0.017731428 0.056862857 0.64200002
0.018954286 0.056862857 0.64200002
0.020177143 0.056862857 0.64200002
0.021400001 0.056862857 0.64200002
0.022622859 0.056862857 0.64200002
0.023845714 0.056862857 0.64200002
0.025068572 0.056862857 0.64200002
0.026250478 0.056774288 0.64100003
0.027471429 0.056774288 0.64100003
0.028692381 0.056774288 0.64100003
0.029866669 0.056685716 0.64000005
0.031085717 0.056685716 0.64000005
0.03225429 0.056597147 0.63900006
0.033471432 0.056597147 0.63900006
0.034688573 0.056597147 0.63900006
0.035961907 0.056685716 0.64000005
0.037180953 0.056685716 0.64000005
0.038460001 0.056774288 0.64100003
0.039680954 0.056774288 0.64100003
0.040901907 0.056774288 0.64100003
0.04212286 0.056774288 0.64100003
0.043343812 0.056774288 0.64100003
0.044564765 0.056774288 0.64100003
0.045857143 0.056862857 0.64200002
0.047006667 0.056774288 0.64100003
0.048302859 0.056862857 0.64200002
0.049525715 0.056862857 0.64200002
0.050906669 0.057040006 0.64400005
0.052214291 0.057128575 0.64500004
0.053525716 0.057217143 0.64600003
0.054840952 0.057305716 0.64700001
0.056159999 0.057394285 0.648
0.057394285 0.057394285 0.648
0.058809526 0.057571433 0.65000004
0.060140003 0.057660002 0.65100002
0.06147429 0.057748571 0.65200001
0.062716186 0.057748571 0.65200001
0.064056195 0.057837147 0.65300006
0.065300003 0.057837147 0.65300006
0.066543818 0.057837147 0.65300006
-0.030393332 0.061433338 0.67900002
-0.029100001 0.061433338 0.67900002
-0.027806668 0.061433338 0.67900002
-0.026513334 0.061433338 0.67900002
-0.025182858 0.061342862 0.67800003
-0.023926668 0.061433338 0.67900002
-0.022633335 0.061433338 0.67900002
-0.0097428579 0.061704762 0.68200004
-0.00844381 0.061704762 0.68200004
-0.0071447622 0.061704762 0.68200004
-0.005828571 0.061523806 0.68000001
-0.0045266668 0.061433338 0.67900002
-0.0032333334 0.061433338 0.67900002
-0.00062857143 0.059714288 0.66000003
0.00062857143 0.059714288 0.66000003
0.0018800002 0.059533339 0.65800005
0.0031285714 0.059442859 0.65700001
0.0043733334 0.059352383 0.65600002
0.005597143 0.059080955 0.65300006
0.0068304762 0.058990479 0.65200001
0.0080599999 0.058900002 0.65100002
0.0092571434 0.05862857 0.648
0.010491428 0.05862857 0.648
0.011707619 0.058538094 0.64700001
0.01294 0.058538094 0.64700001
0.014128572 0.058357146 0.64500004
0.015333335 0.05826667 0.64400005
0.016559999 0.05826667 0.64400005
0.017731428 0.058085714 0.64200002
0.018954286 0.058085714 0.64200002
0.020177143 0.058085714 0.64200002
0.021400001 0.058085714 0.64200002
0.022622859 0.058085714 0.64200002
0.023845714 0.058085714 0.64200002
0.025068572 0.058085714 0.64200002
0.02629143 0.058085714 0.64200002
0.027471429 0.057995241 0.64100003
0.028692381 0.057995241 0.64100003
0.029913336 0.057995241 0.64100003
0.031134287 0.057995241 0.64100003
0.032304764 0.057904765 0.64000005
0.033523809 0.057904765 0.64000005
0.034742858 0.057904765 0.64000005
0.036018096 0.057995241 0.64100003
0.037239049 0.057995241 0.64100003
0.038460001 0.057995241 0.64100003
0.039680954 0.057995241 0.64100003
0.040965714 0.058085714 0.64200002
0.04218857 0.058085714 0.64200002
0.04341143 0.058085714 0.64200002
0.044634286 0.058085714 0.64200002
0.045857143 0.058085714 0.64200002
0.047006667 0.057995241 0.64100003
0.048302859 0.058085714 0.64200002
0.049525715 0.058085714 0.64200002
0.050906669 0.05826667 0.64400005
0.052214291 0.058357146 0.64500004
0.053525716 0.058447622 0.64600003
0.054925714 0.05862857 0.648
0.056159999 0.05862857 0.648
0.057571433 0.058809526 0.65000004
0.058900002 0.058900002 0.65100002
0.060232379 0.058990479 0.65200001
0.06147429 0.058990479 0.65200001
0.06281238 0.059080955 0.65300006
0.064252384 0.059261907 0.65500003
0.065499999 0.059261907 0.65500003
-0.030393332 0.062726662 0.67900002
-0.029100001 0.062726662 0.67900002
-0.027806668 0.062726662 0.67900002
-0.026552381 0.062819049 0.68000001
-0.025220001 0.062726662 0.67900002
-0.023926668 0.062726662 0.67900002
-0.022633335 0.062726662 0.67900002
-0.021371428 0.062819049 0.68000001
-0.020076191 0.062819049 0.68000001
-0.018753333 0.062726662 0.67900002
-0.017434288 0.062634289 0.67800003
-0.016142858 0.062634289 0.67800003
-0.014851429 0.062634289 0.67800003
-0.013580001 0.062726662 0.67900002
-0.012268572 0.062634289 0.67800003
-0.011009524 0.062819049 0.68000001
-0.0097142858 0.062819049 0.68000001
-0.008419048 0.062819049 0.68000001
-0.0071238093 0.062819049 0.68000001
-0.0058200001 0.062726662 0.67900002
-0.0045200004 0.062634289 0.67800003
-0.0032285715 0.062634289 0.67800003
-0.0018885714 0.061063815 0.66100001
-0.00062952383 0.061063815 0.66100001
0.00062857143 0.060971431 0.66000003
0.0018800002 0.060786668 0.65800005
0.0031333335 0.060786668 0.65800005
0.0043799998 0.060694285 0.65700001
0.005597143 0.060324769 0.65300006
0.0068304762 0.060232379 0.65200001
0.0080723809 0.060232379 0.65200001
0.0092857154 0.060047623 0.65000004
0.010491428 0.059862856 0.648
0.011707619 0.05977048 0.64700001
0.01294 0.05977048 0.64700001
0.014150477 0.059678096 0.64600003
0.015357144 0.059585717 0.64500004
0.016559999 0.059493337 0.64400005
0.017786669 0.059493337 0.64400005
0.018954286 0.059308574 0.64200002
0.020177143 0.059308574 0.64200002
0.021400001 0.059308574 0.64200002
0.022622859 0.059308574 0.64200002
0.023845714 0.059308574 0.64200002
0.025068572 0.059308574 0.64200002
0.02629143 0.059308574 0.64200002
0.027514286 0.059308574 0.64200002
0.028737145 0.059308574 0.64200002
0.029913336 0.05921619 0.64100003
0.031134287 0.05921619 0.64100003
0.032304764 0.059123814 0.64000005
0.033523809 0.059123814 0.64000005
0.034742858 0.059123814 0.64000005
0.036018096 0.05921619 0.64100003
0.037239049 0.05921619 0.64100003
0.038460001 0.05921619 0.64100003
0.039742857 0.059308574 0.64200002
0.040965714 0.059308574 0.64200002
0.04218857 0.059308574 0.64200002
0.04341143 0.059308574 0.64200002
0.044634286 0.059308574 0.64200002
0.045857143 0.059308574 0.64200002
0.047080003 0.059308574 0.64200002
0.048302859 0.059308574 0.64200002
0.049680006 0.059493337 0.64400005
0.050906669 0.059493337 0.64400005
0.052295242 0.059678096 0.64600003
0.053608574 0.05977048 0.64700001
0.054840952 0.05977048 0.64700001
0.056159999 0.059862856 0.648
0.057571433 0.060047623 0.65000004
0.058900002 0.060140003 0.65100002
0.060232379 0.060232379 0.65200001
0.06147429 0.060232379 0.65200001
0.06281238 0.060324769 0.65300006
0.064252384 0.060509525 0.65500003
0.065499999 0.060509525 0.65500003
-0.029100001 0.06402 0.67900002
-0.027806668 0.06402 0.67900002
-0.026552381 0.064114287 0.68000001
-0.025220001 0.06402 0.67900002
-0.023926668 0.06402 0.67900002
-0.022666667 0.064114287 0.68000001
-0.021371428 0.064114287 0.68000001
-0.020076191 0.064114287 0.68000001
-0.018780952 0.064114287 0.68000001
-0.01746 0.06402 0.67900002
-0.016142858 0.063925713 0.67800003
-0.014873333 0.06402 0.67900002
-0.013580001 0.06402 0.67900002
-0.012286667 0.06402 0.67900002
-0.010993334 0.06402 0.67900002
-0.0097000003 0.06402 0.67900002
-0.008406667 0.06402 0.67900002
-0.0071238093 0.064114287 0.68000001
-0.0058200001 0.06402 0.67900002
-0.0045200004 0.063925713 0.67800003
-0.0032285715 0.063925713 0.67800003
-0.001937143 0.063925713 0.67800003
-0.0006266667 0.062040005 0.65800005
0.0006266667 0.062040005 0.65800005
0.0018800002 0.062040005 0.65800005
0.0031333335 0.062040005 0.65800005
0.0043799998 0.061945714 0.65700001
0.0056142863 0.061757144 0.65500003
0.0068409527 0.061568573 0.65300006
0.0080723809 0.06147429 0.65200001
0.0093 0.061380003 0.65100002
0.01052381 0.061285719 0.65000004
0.011725714 0.061097141 0.648
0.01296 0.061097141 0.648
0.014172382 0.061002858 0.64700001
0.015380953 0.060908575 0.64600003
0.016585715 0.060814288 0.64500004
0.017814288 0.060814288 0.64500004
0.019042857 0.060814288 0.64500004
0.020240003 0.060720004 0.64400005
0.021466667 0.060720004 0.64400005
0.022622859 0.06053143 0.64200002
0.023845714 0.06053143 0.64200002
0.025068572 0.06053143 0.64200002
0.02629143 0.06053143 0.64200002
0.027514286 0.06053143 0.64200002
0.028737145 0.06053143 0.64200002
0.029959999 0.06053143 0.64200002
0.031134287 0.060437147 0.64100003
0.032355241 0.060437147 0.64100003
0.033523809 0.060342859 0.64000005
0.034797143 0.060437147 0.64100003
0.036018096 0.060437147 0.64100003
0.037239049 0.060437147 0.64100003
0.038460001 0.060437147 0.64100003
0.039742857 0.06053143 0.64200002
0.040965714 0.06053143 0.64200002
0.04218857 0.06053143 0.64200002
0.04341143 0.06053143 0.64200002
0.044634286 0.06053143 0.64200002
0.045857143 0.06053143 0.64200002
0.047006667 0.060437147 0.64100003
