# .PCD v0.7 - Point Cloud Data file format
VERSION 0.7
FIELDS x y z rgba
SIZE 4 4 4 4
TYPE F F F U
COUNT 1 1 1 1
WIDTH 1037
HEIGHT 1
VIEWPOINT 0 0 0 1 0 0 0
POINTS 1037
DATA ascii
0.029500002 -0.038500004 0.52500004 4285218635
0.0305 -0.038500004 0.52500004 4284956494
0.03156 -0.038573336 0.52600002 4284694342
0.032561906 -0.038573336 0.52600002 4284627518
0.033627622 -0.038646668 0.52700001 4284495675
0.034631427 -0.038646668 0.52700001 4284560697
0.035635237 -0.038646668 0.52700001 4284625980
0.036708571 -0.038719997 0.528 4284363583
0.037785716 -0.038793333 0.52900004 4284101439
0.038866669 -0.038866669 0.53000003 4284036159
0.040026665 -0.039013334 0.53200001 4284034618
0.041117147 -0.03908667 0.53300005 4284034613
0.042369526 -0.039306667 0.53600001 4284100398
0.043390475 -0.039306667 0.53600001 4284035367
0.044577144 -0.039453335 0.53800005 4283970351
0.045601908 -0.039453335 0.53800005 4284101687
-0.055600002 -0.039714288 0.55600005 4280685066
-0.054540958 -0.039714288 0.55600005 4280816395
-0.05348191 -0.039714288 0.55600005 4280947206
-0.052422862 -0.039714288 0.55600005 4281868033
-0.051363815 -0.039714288 0.55600005 4282790936
-0.050304763 -0.039714288 0.55600005 4283124271
-0.049245719 -0.039714288 0.55600005 4283515441
-0.048186671 -0.039714288 0.55600005 4282789171
-0.047212381 -0.039785717 0.55700004 4282061354
-0.046234287 -0.039857145 0.55800003 4281471521
-0.045171432 -0.039857145 0.55800003 4280880918
-0.017833333 -0.038214289 0.53500003 4279895052
-0.016845714 -0.038285714 0.53600001 4279962381
-0.015795238 -0.038214289 0.53500003 4280093455
-0.014748572 -0.03814286 0.53400004 4280290577
-0.013705716 -0.038071431 0.53300005 4279963411
-0.012666667 -0.038000003 0.53200001 4279702549
-0.011631429 -0.03792857 0.53100002 4280228375
-0.010580001 -0.037785716 0.52900004 4280818203
-0.0095542856 -0.037714284 0.528 4280622623
-0.0085485708 -0.037714284 0.528 4280424468
-0.007542857 -0.037714284 0.528 4280686857
-0.0065247621 -0.037642859 0.52700001 4281014289
-0.0055000004 -0.037500001 0.52500004 4281210136
-0.0045000003 -0.037500001 0.52500004 4281408290
-0.0034933335 -0.037428573 0.52400005 4281409068
-0.0024952383 -0.037428573 0.52400005 4281474599
-0.0014971429 -0.037428573 0.52400005 4281606691
-0.00049809524 -0.03735714 0.523 4281802782
0.00049809524 -0.03735714 0.523 4281867290
0.0014942857 -0.03735714 0.523 4281998624
0.0024904762 -0.03735714 0.523 4281868583
0.0034866666 -0.03735714 0.523 4281803299
0.0044742855 -0.037285715 0.52200001 4281935903
0.0054685716 -0.037285715 0.52200001 4282131492
0.0064628571 -0.037285715 0.52200001 4282393897
0.0074428576 -0.037214287 0.52100003 4282657579
0.0084352382 -0.037214287 0.52100003 4282854957
0.0094276192 -0.037214287 0.52100003 4283117361
0.010439999 -0.037285715 0.52200001 4283183414
0.011412381 -0.037214287 0.52100003 4283248183
0.012404762 -0.037214287 0.52100003 4282920760
0.013371429 -0.037142862 0.52000004 4282659902
0.014417144 -0.037285715 0.52200001 4283053637
0.015411429 -0.037285715 0.52200001 4283514178
0.016374286 -0.037214287 0.52100003 4283711296
0.017333334 -0.037142862 0.52000004 4283974469
0.018323811 -0.037142862 0.52000004 4284301898
0.019351428 -0.037214287 0.52100003 4284628556
0.02034381 -0.037214287 0.52100003 4284890446
0.021336192 -0.037214287 0.52100003 4285220951
0.022328572 -0.037214287 0.52100003 4285553760
0.023320954 -0.037214287 0.52100003 4285944407
0.024313334 -0.037214287 0.52100003 4285747791
0.025354287 -0.037285715 0.52200001 4285549132
0.026399048 -0.03735714 0.523 4285285705
0.027447622 -0.037428573 0.52400005 4285087814
0.028445715 -0.037428573 0.52400005 4285349444
0.029556191 -0.03757143 0.52600002 4285611598
0.030558096 -0.03757143 0.52600002 4285218648
0.03156 -0.03757143 0.52600002 4284824906
0.032561906 -0.03757143 0.52600002 4284628028
0.033627622 -0.037642859 0.52700001 4284495404
0.034631427 -0.037642859 0.52700001 4284362525
0.035635237 -0.037642859 0.52700001 4284297516
0.03663905 -0.037642859 0.52700001 4284167227
0.037785716 -0.037785716 0.52900004 4284101690
0.038940001 -0.03792857 0.53100002 4284101690
0.040101908 -0.038071431 0.53300005 4284101684
0.04127143 -0.038214289 0.53500003 4284167471
0.042369526 -0.038285714 0.53600001 4284232225
0.043390475 -0.038285714 0.53600001 4284166932
0.044577144 -0.038428575 0.53800005 4284101665
0.045771431 -0.038571429 0.54000002 4284298798
0.046800002 -0.038571429 0.54000002 4284494128
-0.055600002 -0.038655244 0.55600005 4280685826
-0.054540958 -0.038655244 0.55600005 4280882433
-0.05348191 -0.038655244 0.55600005 4281013505
-0.052422862 -0.038655244 0.55600005 4281537793
-0.051363815 -0.038655244 0.55600005 4282127646
-0.050304763 -0.038655244 0.55600005 4283060540
-0.049245719 -0.038655244 0.55600005 4284042041
-0.048273336 -0.038724765 0.55700004 4283249974
-0.047297146 -0.038794287 0.55800003 4282390572
-0.046234287 -0.038794287 0.55800003 4281798690
-0.045171432 -0.038794287 0.55800003 4281208341
-0.044266667 -0.038933333 0.56 4280552969
-0.043200001 -0.038933333 0.56 4279897608
-0.016845714 -0.037264764 0.53600001 4280027915
-0.015795238 -0.037195239 0.53500003 4280225294
-0.014748572 -0.037125718 0.53400004 4280422670
-0.013705716 -0.037056193 0.53300005 4280225550
-0.012666667 -0.036986664 0.53200001 4280030483
-0.011653333 -0.036986664 0.53200001 4280424217
-0.010580001 -0.0367781 0.52900004 4280883479
-0.0095723812 -0.0367781 0.52900004 4280751894
-0.0085647628 -0.0367781 0.52900004 4280686093
-0.007542857 -0.036708571 0.528 4280883204
-0.0065247621 -0.03663905 0.52700001 4281080587
-0.0055104764 -0.036569525 0.52600002 4281211411
-0.0045000003 -0.036499999 0.52500004 4281407768
-0.0035000001 -0.036499999 0.52500004 4281473822
-0.0024952383 -0.036430478 0.52400005 4281539870
-0.0014971429 -0.036430478 0.52400005 4281605662
-0.00049809524 -0.036360953 0.523 4281736984
0.00049809524 -0.036360953 0.523 4281868051
0.0014942857 -0.036360953 0.523 4282064664
0.0024904762 -0.036360953 0.523 4281934109
0.0034866666 -0.036360953 0.523 4281868822
0.0044742855 -0.036291432 0.52200001 4282000144
0.0054685716 -0.036291432 0.52200001 4282131737
0.0064628571 -0.036291432 0.52200001 4282328610
0.0074571432 -0.036291432 0.52200001 4282592802
0.0084514292 -0.036291432 0.52200001 4282788899
0.0094457148 -0.036291432 0.52200001 4283050540
0.01046 -0.036360953 0.523 4283116341
0.011434286 -0.036291432 0.52200001 4283182389
0.012428571 -0.036291432 0.52200001 4283052086
0.013397143 -0.036221907 0.52100003 4282921532
0.014417144 -0.036291432 0.52200001 4283184963
0.015411429 -0.036291432 0.52200001 4283382849
0.016374286 -0.036221907 0.52100003 4283645759
0.017366666 -0.036221907 0.52100003 4283843396
0.018359048 -0.036221907 0.52100003 4284170314
0.019388571 -0.036291432 0.52200001 4284496711
0.020382857 -0.036291432 0.52200001 4284825413
0.021377144 -0.036291432 0.52200001 4285154123
0.022328572 -0.036221907 0.52100003 4285552466
0.023365714 -0.036291432 0.52200001 4285944141
0.024360001 -0.036291432 0.52200001 4285746504
0.025354287 -0.036291432 0.52200001 4285548870
0.026399048 -0.036360953 0.523 4285285444
0.027447622 -0.036430478 0.52400005 4285088577
0.0285 -0.036499999 0.52500004 4285219391
0.029556191 -0.036569525 0.52600002 4285350225
0.03061619 -0.03663905 0.52700001 4285087587
0.03162 -0.03663905 0.52700001 4284824143
0.032623809 -0.03663905 0.52700001 4284692795
0.033627622 -0.03663905 0.52700001 4284560926
0.034631427 -0.03663905 0.52700001 4284363009
0.035702854 -0.036708571 0.528 4284230684
0.036708571 -0.036708571 0.528 4284166968
0.037857145 -0.036847621 0.53000003 4284168502
0.039013334 -0.036986664 0.53200001 4284167989
0.040177148 -0.037125718 0.53400004 4284168751
0.041348573 -0.037264764 0.53600001 4284232490
0.042369526 -0.037264764 0.53600001 4284363029
0.043390475 -0.037264764 0.53600001 4284166657
0.044494286 -0.037334286 0.537 4283970835
0.045517143 -0.037334286 0.537 4284298277
0.046800002 -0.037542857 0.54000002 4284624174
-0.054540958 -0.037596196 0.55600005 4280947219
-0.053578097 -0.037663814 0.55700004 4281143306
-0.052422862 -0.037596196 0.55600005 4281273858
-0.051363815 -0.037596196 0.55600005 4281470751
-0.050304763 -0.037596196 0.55600005 4283062589
-0.049245719 -0.037596196 0.55600005 4284633408
-0.048273336 -0.037663814 0.55700004 4283711043
-0.047212381 -0.037663814 0.55700004 4282787115
-0.046234287 -0.037731431 0.55800003 4282191635
-0.045171432 -0.037731431 0.55800003 4281601293
-0.04418762 -0.037799049 0.55900002 4280421128
-0.043122858 -0.037799049 0.55900002 4279240457
-0.016845714 -0.036243808 0.53600001 4280159241
-0.015795238 -0.03617619 0.53500003 4280358156
-0.014776191 -0.03617619 0.53500003 4280553230
-0.013705716 -0.036040954 0.53300005 4280487952
-0.012666667 -0.035973333 0.53200001 4280423185
-0.011653333 -0.035973333 0.53200001 4280686097
-0.01062 -0.035905715 0.53100002 4280947989
-0.0096085723 -0.035905715 0.53100002 4280947992
-0.0085809529 -0.035838097 0.53000003 4281013775
-0.007542857 -0.035702854 0.528 4281079558
-0.0065247621 -0.035635237 0.52700001 4281211405
-0.0055209524 -0.035635237 0.52700001 4281276947
-0.0045000003 -0.035500001 0.52500004 4281408021
-0.0035000001 -0.035500001 0.52500004 4281539096
-0.0025000002 -0.035500001 0.52500004 4281671193
-0.0014971429 -0.035432383 0.52400005 4281671195
-0.00049904769 -0.035432383 0.52400005 4281671186
0.00049809524 -0.035364762 0.523 4281867786
0.0014942857 -0.035364762 0.523 4282130193
0.0024904762 -0.035364762 0.523 4282065433
0.0034866666 -0.035364762 0.523 4281999888
0.0044742855 -0.035297144 0.52200001 4282065416
0.005479048 -0.035364762 0.523 4282131215
0.0064752377 -0.035364762 0.523 4282328854
0.0074714287 -0.035364762 0.523 4282591261
0.0084676184 -0.035364762 0.523 4282788389
0.0094638094 -0.035364762 0.523 4282985002
0.01046 -0.035364762 0.523 4283050544
0.011434286 -0.035297144 0.52200001 4283182130
0.012428571 -0.035297144 0.52200001 4283183413
0.013397143 -0.035229523 0.52100003 4283249719
0.014389525 -0.035229523 0.52100003 4283251000
0.015381905 -0.035229523 0.52100003 4283316794
0.016374286 -0.035229523 0.52100003 4283514683
0.017366666 -0.035229523 0.52100003 4283776576
0.018394286 -0.035297144 0.52200001 4284038725
0.019388571 -0.035297144 0.52200001 4284366650
0.020421905 -0.035364762 0.523 4284760367
0.021418095 -0.035364762 0.523 4285155146
0.022414286 -0.035364762 0.523 4285551205
0.023410475 -0.035364762 0.523 4286009692
0.024406668 -0.035364762 0.523 4285745747
0.025402857 -0.035364762 0.523 4285549133
0.026449526 -0.035432383 0.52400005 4285350984
0.027552381 -0.035567619 0.52600002 4285153351
0.028554287 -0.035567619 0.52600002 4285152071
0.029612381 -0.035635237 0.52700001 4285152590
0.03061619 -0.035635237 0.52700001 4284956501
0.03162 -0.035635237 0.52700001 4284824138
0.032623809 -0.035635237 0.52700001 4284692543
0.033627622 -0.035635237 0.52700001 4284626984
0.034631427 -0.035635237 0.52700001 4284429073
0.035702854 -0.035702854 0.528 4284232483
0.0367781 -0.035770476 0.52900004 4284232501
0.037857145 -0.035838097 0.53000003 4284232760
0.03908667 -0.036040954 0.53300005 4284233019
0.040177148 -0.036108572 0.53400004 4284298044
0.041348573 -0.036243808 0.53600001 4284363326
0.042369526 -0.036243808 0.53600001 4284494378
0.043390475 -0.036243808 0.53600001 4284166679
0.044411428 -0.036243808 0.53600001 4283839011
0.045432381 -0.036243808 0.53600001 4284298032
-0.054540958 -0.036537144 0.55600005 4280814886
-0.05348191 -0.036537144 0.55600005 4281011220
-0.052422862 -0.036537144 0.55600005 4280945923
-0.051363815 -0.036537144 0.55600005 4280879393
-0.050304763 -0.036537144 0.55600005 4282725439
-0.049245719 -0.036537144 0.55600005 4284634951
-0.048273336 -0.036602858 0.55700004 4284368208
-0.047212381 -0.036602858 0.55700004 4284166954
-0.046234287 -0.036668573 0.55800003 4282920708
-0.045171432 -0.036668573 0.55800003 4281740293
-0.04418762 -0.036734283 0.55900002 4281013255
-0.043122858 -0.036734283 0.55900002 4280353290
-0.016845714 -0.035222858 0.53600001 4280159495
-0.015795238 -0.035157144 0.53500003 4280421642
-0.014748572 -0.035091434 0.53400004 4280618510
-0.013705716 -0.03502572 0.53300005 4280553491
-0.012690478 -0.03502572 0.53300005 4280553998
-0.011653333 -0.034959998 0.53200001 4280684810
-0.01064 -0.034959998 0.53200001 4280881170
-0.0096266661 -0.034959998 0.53200001 4281078811
-0.0085809529 -0.034828573 0.53000003 4281277202
-0.007557143 -0.034762859 0.52900004 4281211401
-0.0065247621 -0.034631427 0.52700001 4281211406
-0.0055209524 -0.034631427 0.52700001 4281342484
-0.0045085717 -0.034565717 0.52600002 4281473555
-0.0035000001 -0.034500003 0.52500004 4281539602
-0.0025000002 -0.034500003 0.52500004 4281671445
-0.0015 -0.034500003 0.52500004 4281736729
-0.00049904769 -0.034434289 0.52400005 4281801741
0.00049809524 -0.034368575 0.523 4282129665
0.0014942857 -0.034368575 0.523 4282457867
0.0024904762 -0.034368575 0.523 4281999381
0.0034866666 -0.034368575 0.523 4281606411
0.004482857 -0.034368575 0.523 4281868545
0.005479048 -0.034368575 0.523 4282065157
0.0064752377 -0.034368575 0.523 4282329098
0.0074714287 -0.034368575 0.523 4282591768
0.0084676184 -0.034368575 0.523 4282722855
0.0094638094 -0.034368575 0.523 4282919465
0.01046 -0.034368575 0.523 4282788651
0.011434286 -0.034302857 0.52200001 4282657840
0.012428571 -0.034302857 0.52200001 4282920501
0.013397143 -0.034237143 0.52100003 4283250225
0.014389525 -0.034237143 0.52100003 4283315758
0.015381905 -0.034237143 0.52100003 4283446835
0.016405715 -0.034302857 0.52200001 4283643448
0.0174 -0.034302857 0.52200001 4283905852
0.018429523 -0.034368575 0.523 4284168768
0.019425714 -0.034368575 0.523 4284432685
0.020421905 -0.034368575 0.523 4284826394
0.021418095 -0.034368575 0.523 4285287497
0.022371428 -0.034302857 0.52200001 4285615737
0.023410475 -0.034368575 0.523 4285944172
0.024406668 -0.034368575 0.523 4285811295
0.025402857 -0.034368575 0.523 4285746261
0.026500002 -0.034500003 0.52500004 4285416524
0.027500002 -0.034500003 0.52500004 4285152845
0.028608572 -0.034631427 0.52700001 4285086799
0.029612381 -0.034631427 0.52700001 4285019467
0.03061619 -0.034631427 0.52700001 4284890952
0.03162 -0.034631427 0.52700001 4284758853
0.032623809 -0.034631427 0.52700001 4284693059
0.033691429 -0.034697141 0.528 4284627506
0.034631427 -0.034631427 0.52700001 4284496418
0.035702854 -0.034697141 0.528 4284430890
0.036847621 -0.034828573 0.53000003 4284364082
0.038000003 -0.034959998 0.53200001 4284298041
0.039160002 -0.035091434 0.53400004 4284363329
0.04032762 -0.035222858 0.53600001 4284428874
0.041348573 -0.035222858 0.53600001 4284560211
0.042448569 -0.035288572 0.537 4284757056
0.043390475 -0.035222858 0.53600001 4284428845
0.044577144 -0.035354286 0.53800005 4284101172
0.045601908 -0.035354286 0.53800005 4284363323
0.049580958 -0.036011431 0.54800004 4285093450
0.050624762 -0.036011431 0.54800004 4286875272
-0.053578097 -0.035541907 0.55700004 4280879893
-0.052517146 -0.035541907 0.55700004 4280618254
-0.051456194 -0.035541907 0.55700004 4280356379
-0.050395243 -0.035541907 0.55700004 4282453800
-0.049334288 -0.035541907 0.55700004 4284631347
-0.048273336 -0.035541907 0.55700004 4285098815
-0.047297146 -0.035605714 0.55800003 4285549857
-0.046234287 -0.035605714 0.55800003 4283708163
-0.045171432 -0.035605714 0.55800003 4281873923
-0.04418762 -0.035669528 0.55900002 4281671172
-0.043200001 -0.035733335 0.56 4281470730
-0.042133335 -0.035733335 0.56 4280877328
-0.01480381 -0.034201905 0.53600001 4280749583
-0.013705716 -0.034010477 0.53300005 4280683277
-0.012690478 -0.034010477 0.53300005 4280685065
-0.011653333 -0.033946667 0.53200001 4280749573
-0.01064 -0.033946667 0.53200001 4280815632
-0.0096266661 -0.033946667 0.53200001 4281144091
-0.008597143 -0.033882856 0.53100002 4281538835
-0.007557143 -0.033755243 0.52900004 4281342475
-0.0065371427 -0.033691429 0.528 4281211664
-0.0055209524 -0.033627622 0.52700001 4281343509
-0.0045171427 -0.033627622 0.52700001 4281539091
-0.0035066667 -0.033563811 0.52600002 4281605905
-0.002504762 -0.033563811 0.52600002 4281736730
-0.0015 -0.033500001 0.52500004 4281802275
-0.00050000002 -0.033500001 0.52500004 4281932825
0.00050000002 -0.033500001 0.52500004 4282325518
0.0014971429 -0.03343619 0.52400005 4282784795
0.0024904762 -0.03337238 0.523 4281998887
0.0034866666 -0.03337238 0.523 4281277978
0.004482857 -0.03337238 0.523 4281671437
0.005479048 -0.03337238 0.523 4282065935
0.0064752377 -0.03337238 0.523 4282329617
0.0074714287 -0.03337238 0.523 4282657311
0.0084676184 -0.03337238 0.523 4282723373
0.0094638094 -0.03337238 0.523 4282854193
0.01046 -0.03337238 0.523 4282462005
0.011456191 -0.03337238 0.523 4282133561
0.012428571 -0.033308573 0.52200001 4282657852
0.013422858 -0.033308573 0.52200001 4283249721
0.014417144 -0.033308573 0.52200001 4283381302
0.015411429 -0.033308573 0.52200001 4283577405
0.016405715 -0.033308573 0.52200001 4283839045
0.0174 -0.033308573 0.52200001 4284102469
0.018429523 -0.03337238 0.523 4284299078
0.019425714 -0.03337238 0.523 4284563770
0.020421905 -0.03337238 0.523 4284957998
0.021418095 -0.03337238 0.523 4285417548
0.022414286 -0.03337238 0.523 4285680745
0.023410475 -0.03337238 0.523 4285943910
0.024406668 -0.03337238 0.523 4285942370
0.025402857 -0.03337238 0.523 4285943384
0.026550477 -0.033563811 0.52600002 4285547597
0.027552381 -0.033563811 0.52600002 4285219156
0.028608572 -0.033627622 0.52700001 4285021787
0.029612381 -0.033627622 0.52700001 4284890700
0.03061619 -0.033627622 0.52700001 4284825404
0.03162 -0.033627622 0.52700001 4284758848
0.032685712 -0.033691429 0.528 4284693572
0.033691429 -0.033691429 0.528 4284693052
0.034697141 -0.033691429 0.528 4284627507
0.035702854 -0.033691429 0.528 4284626999
0.036847621 -0.03381905 0.53000003 4284495675
0.03814286 -0.034074288 0.53400004 4284430141
0.039233338 -0.034138095 0.53500003 4284495680
0.04032762 -0.034201905 0.53600001 4284561220
0.041348573 -0.034201905 0.53600001 4284757833
0.042448569 -0.034265716 0.537 4285018943
0.043390475 -0.034201905 0.53600001 4284690486
0.044411428 -0.034201905 0.53600001 4284363067
0.045517143 -0.034265716 0.537 4284494401
0.04654 -0.034265716 0.537 4284691246
0.048537146 -0.034967624 0.54800004 4284888347
0.049580958 -0.034967624 0.54800004 4285096017
0.050717145 -0.03503143 0.54900002 4286941832
0.051762857 -0.03503143 0.54900002 4288841596
0.052808572 -0.03503143 0.54900002 4288709745
-0.053578097 -0.034480955 0.55700004 4280815894
-0.052517146 -0.034480955 0.55700004 4280685082
-0.051456194 -0.034480955 0.55700004 4280620053
-0.050395243 -0.034480955 0.55700004 4281602577
-0.049334288 -0.034480955 0.55700004 4282596383
-0.048360001 -0.034542859 0.55800003 4284242990
-0.047381904 -0.034604762 0.55900002 4285884440
-0.046317145 -0.034604762 0.55900002 4284961795
-0.045252379 -0.034604762 0.55900002 4284039170
-0.044266667 -0.034666669 0.56 4282790401
-0.043200001 -0.034666669 0.56 4281476105
-0.042133335 -0.034666669 0.56 4281210642
-0.01694 -0.033366669 0.53900003 4280291089
-0.015824763 -0.033180952 0.53600001 4280552985
-0.01480381 -0.033180952 0.53600001 4280815120
-0.013757143 -0.033119049 0.53500003 4280881159
-0.012714287 -0.033057146 0.53400004 4280881668
-0.011653333 -0.032933336 0.53200001 4280816641
-0.01064 -0.032933336 0.53200001 4280751886
-0.0096266661 -0.032933336 0.53200001 4281014044
-0.008597143 -0.032871429 0.53100002 4281210645
-0.007557143 -0.032747623 0.52900004 4281211662
-0.0065371427 -0.032685712 0.528 4281146386
-0.0055314284 -0.032685712 0.528 4281277974
-0.0045171427 -0.032623809 0.52700001 4281408019
-0.0035066667 -0.032561906 0.52600002 4281474577
-0.002504762 -0.032561906 0.52600002 4281605663
-0.0015028572 -0.032561906 0.52600002 4281736494
-0.00050000002 -0.032500003 0.52500004 4281934117
0.00050000002 -0.032500003 0.52500004 4282194972
0.0015 -0.032500003 0.52500004 4282522155
0.0024904762 -0.032376189 0.523 4282064442
0.0034866666 -0.032376189 0.523 4281673002
0.0044914288 -0.032438096 0.52400005 4281804314
0.005489524 -0.032438096 0.52400005 4281935641
0.0064876196 -0.032438096 0.52400005 4282198297
0.0074714287 -0.032376189 0.523 4282460966
0.0084676184 -0.032376189 0.523 4282657587
0.0094638094 -0.032376189 0.523 4282854457
0.01046 -0.032376189 0.523 4282724160
0.011456191 -0.032376189 0.523 4282592578
0.012452381 -0.032376189 0.523 4282920260
0.013448572 -0.032376189 0.523 4283315009
0.014417144 -0.032314286 0.52200001 4283511102
0.015440952 -0.032376189 0.523 4283707208
0.016437143 -0.032376189 0.523 4283839059
0.017433334 -0.032376189 0.523 4284037199
0.018429523 -0.032376189 0.523 4284233548
0.019425714 -0.032376189 0.523 4284498247
0.020421905 -0.032376189 0.523 4284957507
0.021418095 -0.032376189 0.523 4285416782
0.022414286 -0.032376189 0.523 4285812314
0.023410475 -0.032376189 0.523 4286206048
0.024453336 -0.032438096 0.52400005 4286140518
0.025451431 -0.032438096 0.52400005 4286074970
0.026449526 -0.032438096 0.52400005 4285680975
0.027604762 -0.032623809 0.52700001 4285352539
0.028608572 -0.032623809 0.52700001 4284958568
0.029612381 -0.032623809 0.52700001 4284630348
0.030674286 -0.032685712 0.528 4284694577
0.031679999 -0.032685712 0.528 4284824379
0.032747623 -0.032747623 0.52900004 4284759110
0.033755243 -0.032747623 0.52900004 4284758085
0.034697141 -0.032685712 0.528 4284757829
0.035770476 -0.032747623 0.52900004 4284757572
0.036917143 -0.032871429 0.53100002 4284560964
0.03814286 -0.033057146 0.53400004 4284298817
0.039306667 -0.033180952 0.53600001 4284299071
0.04032762 -0.033180952 0.53600001 4284365119
0.041425716 -0.033242855 0.537 4284430143
0.042448569 -0.033242855 0.537 4284560191
0.043471429 -0.033242855 0.537 4284363327
0.044494286 -0.033242855 0.537 4284166467
0.045517143 -0.033242855 0.537 4284362823
0.04654 -0.033242855 0.537 4284623160
0.048537146 -0.033923812 0.54800004 4284824106
0.049580958 -0.033923812 0.54800004 4285098841
0.050717145 -0.033985715 0.54900002 4286943625
0.051668573 -0.033923812 0.54800004 4288777091
0.052712385 -0.033923812 0.54800004 4288644477
-0.052517146 -0.033420004 0.55700004 4280817434
-0.051548574 -0.033480003 0.55800003 4280948242
-0.050485715 -0.033480003 0.55800003 4280751370
-0.049422856 -0.033480003 0.55800003 4280558628
-0.048360001 -0.033480003 0.55800003 4283387198
-0.047381904 -0.033540003 0.55900002 4286276161
-0.046317145 -0.033540003 0.55900002 4286279237
-0.045252379 -0.033540003 0.55900002 4286272547
-0.044266667 -0.033599999 0.56 4283906817
-0.043200001 -0.033599999 0.56 4281545234
-0.042133335 -0.033599999 0.56 4281608484
-0.030671427 -0.0339 0.565 4279239172
-0.029595239 -0.0339 0.565 4279042562
-0.028519047 -0.0339 0.565 4278911233
-0.027442858 -0.0339 0.565 4278714625
-0.026319999 -0.033840001 0.56400001 4278583553
-0.025245715 -0.033840001 0.56400001 4278386945
-0.016908573 -0.032280006 0.53800005 4280356382
-0.015854284 -0.032220002 0.537 4280618787
-0.01480381 -0.032160003 0.53600001 4280945943
-0.013782857 -0.032160003 0.53600001 4281012748
-0.012714287 -0.03204 0.53400004 4281143572
-0.011653333 -0.031919997 0.53200001 4280947997
-0.01064 -0.031919997 0.53200001 4280751644
-0.0096266661 -0.031919997 0.53200001 4280817435
-0.008597143 -0.031860001 0.53100002 4280949525
-0.007557143 -0.031740002 0.52900004 4281016080
-0.0065495246 -0.031740002 0.52900004 4281146912
-0.0055314284 -0.031679999 0.528 4281212464
-0.0045257141 -0.031679999 0.528 4281277479
-0.0035133334 -0.03162 0.52700001 4281343261
-0.0025095239 -0.03162 0.52700001 4281474336
-0.0015028572 -0.03156 0.52600002 4281736484
-0.00050095242 -0.03156 0.52600002 4281999137
0.00050095242 -0.03156 0.52600002 4282130206
0.0015028572 -0.03156 0.52600002 4282261288
0.0025000002 -0.031500001 0.52500004 4282195762
0.0035066667 -0.03156 0.52600002 4282131241
0.0045085717 -0.03156 0.52600002 4281935137
0.005489524 -0.031440005 0.52400005 4281804570
0.0064876196 -0.031440005 0.52400005 4281999635
0.0074857147 -0.031440005 0.52400005 4282262559
0.0084676184 -0.031380001 0.523 4282525484
0.0094638094 -0.031380001 0.523 4282854961
0.01046 -0.031380001 0.523 4282920759
0.011456191 -0.031380001 0.523 4283051571
0.012452381 -0.031380001 0.523 4283248175
0.013448572 -0.031380001 0.523 4283445043
0.014444762 -0.031380001 0.523 4283642167
0.015500002 -0.031500001 0.52500004 4283904324
0.016468573 -0.031440005 0.52400005 4283904593
0.017466668 -0.031440005 0.52400005 4283971409
0.018464765 -0.031440005 0.52400005 4284233809
0.019462859 -0.031440005 0.52400005 4284496461
0.020421905 -0.031380001 0.523 4284955720
0.021459049 -0.031440005 0.52400005 4285417295
0.022457145 -0.031440005 0.52400005 4285945686
0.02345524 -0.031440005 0.52400005 4286471773
0.024500001 -0.031500001 0.52500004 4286342756
0.025500001 -0.031500001 0.52500004 4286271327
0.026600951 -0.03162 0.52700001 4285877594
0.027604762 -0.03162 0.52700001 4285483869
0.028608572 -0.03162 0.52700001 4284959073
0.029612381 -0.03162 0.52700001 4284433487
0.030674286 -0.031679999 0.528 4284629309
0.031679999 -0.031679999 0.528 4284890689
0.032747623 -0.031740002 0.52900004 4284824644
0.033755243 -0.031740002 0.52900004 4284824393
0.034697141 -0.031679999 0.528 4284888397
0.035635237 -0.03162 0.52700001 4284954183
0.036986664 -0.031919997 0.53200001 4284561473
0.038214289 -0.032100003 0.53500003 4284233525
0.039306667 -0.032160003 0.53600001 4284167977
0.04032762 -0.032160003 0.53600001 4284167986
0.041425716 -0.032220002 0.537 4284167995
0.04252762 -0.032280006 0.53800005 4284166715
0.043552384 -0.032280006 0.53800005 4284101946
0.044577144 -0.032280006 0.53800005 4284035650
0.045601908 -0.032280006 0.53800005 4284297035
0.04740667 -0.032820001 0.54700005 4284559424
0.048537146 -0.032880001 0.54800004 4284825654
0.049580958 -0.032880001 0.54800004 4285163872
0.050624762 -0.032880001 0.54800004 4286945417
0.051668573 -0.032880001 0.54800004 4288777605
0.052712385 -0.032880001 0.54800004 4288644992
-0.052517146 -0.032359049 0.55700004 4280555546
-0.051548574 -0.032417145 0.55800003 4280817679
-0.050576191 -0.032475237 0.55900002 4280817412
-0.049511429 -0.032475237 0.55900002 4280814633
-0.04844667 -0.032475237 0.55900002 4282331983
-0.047381904 -0.032475237 0.55900002 4283850091
-0.046317145 -0.032475237 0.55900002 4285229703
-0.045252379 -0.032475237 0.55900002 4286611524
-0.044266667 -0.032533333 0.56 4285094145
-0.043200001 -0.032533333 0.56 4283578396
-0.042133335 -0.032533333 0.56 4282723895
-0.04128667 -0.03270762 0.56300002 4281935137
-0.040214289 -0.03270762 0.56300002 4281672204
-0.031747617 -0.032823808 0.565 4279896322
-0.030671427 -0.032823808 0.565 4279503106
-0.029595239 -0.032823808 0.565 4279372034
-0.028519047 -0.032823808 0.565 4279306497
-0.027442858 -0.032823808 0.565 4278977025
-0.026319999 -0.032765713 0.56400001 4278649345
-0.025245715 -0.032765713 0.56400001 4278452482
-0.024171429 -0.032765713 0.56400001 4278321413
-0.01694 -0.031313334 0.53900003 4280421931
-0.015854284 -0.031197142 0.537 4280553262
-0.01480381 -0.031139046 0.53600001 4280683551
-0.013782857 -0.031139046 0.53600001 4280946705
-0.012738096 -0.031080954 0.53500003 4281274661
-0.011697143 -0.031022858 0.53400004 4280882234
-0.01064 -0.030906666 0.53200001 4280490794
-0.0096266661 -0.030906666 0.53200001 4280622618
-0.0086133331 -0.030906666 0.53200001 4280820246
-0.0075857146 -0.030848574 0.53100002 4280951570
-0.0065619051 -0.030790478 0.53000003 4281082926
-0.0055419048 -0.030732382 0.52900004 4281081419
-0.0045257141 -0.030674286 0.528 4281146170
-0.0035133334 -0.03061619 0.52700001 4281080618
-0.0025142855 -0.030674286 0.528 4281015074
-0.0015057144 -0.03061619 0.52700001 4281343258
-0.00050190475 -0.03061619 0.52700001 4281671453
0.00050190475 -0.03061619 0.52700001 4281867809
0.0015057144 -0.03061619 0.52700001 4282063909
0.002504762 -0.030558096 0.52600002 4281999402
0.0035066667 -0.030558096 0.52600002 4281999657
0.0045085717 -0.030558096 0.52600002 4281737768
0.0055000004 -0.0305 0.52500004 4281476891
0.0064876196 -0.030441906 0.52400005 4281869070
0.0074857147 -0.030441906 0.52400005 4282327065
0.0084676184 -0.030383809 0.523 4282592037
0.0094638094 -0.030383809 0.523 4282921258
0.01046 -0.030383809 0.523 4283052591
0.011456191 -0.030383809 0.523 4283249444
0.012452381 -0.030383809 0.523 4283378970
0.013474287 -0.030441906 0.52400005 4283574821
0.014472382 -0.030441906 0.52400005 4284035376
0.015500002 -0.0305 0.52500004 4284494655
0.016468573 -0.030441906 0.52400005 4284297551
0.017466668 -0.030441906 0.52400005 4284167763
0.018464765 -0.030441906 0.52400005 4284364631
0.019462859 -0.030441906 0.52400005 4284627026
0.020460954 -0.030441906 0.52400005 4285023054
0.021500001 -0.0305 0.52500004 4285417808
0.022457145 -0.030441906 0.52400005 4286404691
0.02345524 -0.030441906 0.52400005 4287457115
0.024500001 -0.0305 0.52500004 4286734179
0.025548572 -0.030558096 0.52600002 4285943396
0.026600951 -0.03061619 0.52700001 4285680485
0.027604762 -0.03061619 0.52700001 4285351007
0.028662857 -0.030674286 0.528 4285023322
0.029668571 -0.030674286 0.528 4284630098
0.030674286 -0.030674286 0.528 4284826698
0.031740002 -0.030732382 0.52900004 4285088838
0.032809526 -0.030790478 0.53000003 4284890691
0.033882856 -0.030848574 0.53100002 4284694092
0.034894284 -0.030848574 0.53100002 4284628310
0.035973333 -0.030906666 0.53200001 4284628042
0.036986664 -0.030906666 0.53200001 4284366142
0.03814286 -0.031022858 0.53400004 4284170024
0.039160002 -0.031022858 0.53400004 4284168979
0.04032762 -0.031139046 0.53600001 4284167973
0.041348573 -0.031139046 0.53600001 4284168248
0.04252762 -0.031255241 0.53800005 4284101175
0.043552384 -0.031255241 0.53800005 4284035894
0.044577144 -0.031255241 0.53800005 4283970370
0.045601908 -0.031255241 0.53800005 4284167503
0.04740667 -0.031778101 0.54700005 4284430409
0.048537146 -0.031836193 0.54800004 4284759107
0.049580958 -0.031836193 0.54800004 4285163622
0.050624762 -0.031836193 0.54800004 4287076234
0.051668573 -0.031836193 0.54800004 4288974727
-0.051548574 -0.031354286 0.55800003 4280687372
-0.050666668 -0.031466667 0.56 4280883717
-0.049511429 -0.031410478 0.55900002 4281145891
-0.04844667 -0.031410478 0.55900002 4281276994
-0.047381904 -0.031410478 0.55900002 4281481816
-0.046317145 -0.031410478 0.55900002 4284180334
-0.045252379 -0.031410478 0.55900002 4286934867
-0.044266667 -0.031466667 0.56 4286281528
-0.043122858 -0.031410478 0.55900002 4285680450
-0.042208575 -0.031522859 0.56100005 4283908941
-0.04128667 -0.03163524 0.56300002 4282201648
-0.040214289 -0.03163524 0.56300002 4282001682
-0.039141908 -0.03163524 0.56300002 4281800467
-0.036997143 -0.03163524 0.56300002 4281144592
-0.035988573 -0.031691428 0.56400001 4281013259
-0.034914285 -0.031691428 0.56400001 4280881672
-0.032765713 -0.031691428 0.56400001 4281273607
-0.031747617 -0.031747617 0.565 4280553738
-0.030671427 -0.031747617 0.565 4279831304
-0.029595239 -0.031747617 0.565 4279766022
-0.028468572 -0.031691428 0.56400001 4279700227
-0.027442858 -0.031747617 0.565 4279174145
-0.026319999 -0.031691428 0.56400001 4278715137
-0.025290476 -0.031747617 0.565 4278583810
-0.024214284 -0.031747617 0.565 4278452741
-0.016908573 -0.030230477 0.53800005 4280552990
-0.015883811 -0.030230477 0.53800005 4280487710
-0.014831428 -0.030174285 0.537 4280421907
-0.013782857 -0.030118095 0.53600001 4280946185
-0.012761905 -0.030118095 0.53600001 4281471767
-0.011719048 -0.030061906 0.53500003 4280816676
-0.010660001 -0.029949525 0.53300005 4280228889
-0.0096266661 -0.029893333 0.53200001 4280492047
-0.0086133331 -0.029893333 0.53200001 4280754444
-0.0075857146 -0.029837143 0.53100002 4280886537
-0.0065742861 -0.029837143 0.53100002 4281016865
-0.0055523813 -0.029780954 0.53000003 4281015866
-0.0045342864 -0.029724764 0.52900004 4281080882
-0.00352 -0.029668571 0.528 4280820522
-0.0025142855 -0.029668571 0.528 4280624672
-0.0015085714 -0.029668571 0.528 4280953111
-0.00050190475 -0.029612381 0.52700001 4281344541
0.00050190475 -0.029612381 0.52700001 4281605412
0.0015057144 -0.029612381 0.52700001 4281868329
0.0025095239 -0.029612381 0.52700001 4281869358
0.0035133334 -0.029612381 0.52700001 4281868333
0.0045171427 -0.029612381 0.52700001 4281475116
0.0055000004 -0.029500002 0.52500004 4281149476
0.0065000001 -0.029500002 0.52500004 4281739804
0.0074857147 -0.029443812 0.52400005 4282395682
0.0084838104 -0.029443812 0.52400005 4282724136
0.009481906 -0.029443812 0.52400005 4283052339
0.010480001 -0.029443812 0.52400005 4283249727
0.011478096 -0.029443812 0.52400005 4283445554
0.012476192 -0.029443812 0.52400005 4283575590
0.013500001 -0.029500002 0.52500004 4283772717
0.014500001 -0.029500002 0.52500004 4284428597
0.015500002 -0.029500002 0.52500004 4285083971
0.016468573 -0.029443812 0.52400005 4284690768
0.017466668 -0.029443812 0.52400005 4284364115
0.018464765 -0.029443812 0.52400005 4284562263
0.019462859 -0.029443812 0.52400005 4284760654
0.020460954 -0.029443812 0.52400005 4285090374
0.021500001 -0.029500002 0.52500004 4285417549
0.022457145 -0.029443812 0.52400005 4286937428
0.023500001 -0.029500002 0.52500004 4288506969
0.024546668 -0.029556191 0.52600002 4287060318
0.025548572 -0.029556191 0.52600002 4285682532
0.026600951 -0.029612381 0.52700001 4285483626
0.027657142 -0.029668571 0.528 4285285216
0.028717143 -0.029724764 0.52900004 4285088598
0.029724764 -0.029724764 0.52900004 4284891982
0.030790478 -0.029780954 0.53000003 4285088327
0.031860001 -0.029837143 0.53100002 4285284929
0.032933336 -0.029893333 0.53200001 4284891451
0.033946667 -0.029893333 0.53200001 4284563522
0.034959998 -0.029893333 0.53200001 4284432456
0.036040954 -0.029949525 0.53300005 4284301376
0.037125718 -0.030005716 0.53400004 4284236088
0.038285714 -0.030118095 0.53600001 4284170284
0.039306667 -0.030118095 0.53600001 4284170273
0.040402856 -0.030174285 0.537 4284234030
0.041580003 -0.030286668 0.53900003 4284168763
0.04260667 -0.030286668 0.53900003 4284101689
0.043633334 -0.030286668 0.53900003 4284036151
0.04524 -0.030680001 0.546 4283971650
0.046364766 -0.030736193 0.54700005 4284104012
0.04740667 -0.030736193 0.54700005 4284299853
0.048448578 -0.030736193 0.54700005 4284692557
0.049580958 -0.030792382 0.54800004 4285165677
0.050624762 -0.030792382 0.54800004 4287141516
0.051668573 -0.030792382 0.54800004 4289171080
0.052712385 -0.030792382 0.54800004 4288907397
-0.050666668 -0.030400001 0.56 4280687366
-0.049600001 -0.030400001 0.56 4280818205
-0.04844667 -0.030345716 0.55900002 4280948789
-0.047466666 -0.030400001 0.56 4281145157
-0.046399999 -0.030400001 0.56 4282594133
-0.045252379 -0.030345716 0.55900002 4284043106
-0.044266667 -0.030400001 0.56 4284307311
-0.043200001 -0.030400001 0.56 4284571497
-0.042133335 -0.030400001 0.56 4283516516
-0.041140001 -0.030454289 0.56100005 4282532414
-0.040142857 -0.030508572 0.56200004 4282131993
-0.039141908 -0.030562857 0.56300002 4281735703
-0.038069528 -0.030562857 0.56300002 4281276437
-0.036997143 -0.030562857 0.56300002 4280817423
-0.035988573 -0.030617142 0.56400001 4280621065
-0.034914285 -0.030617142 0.56400001 4280359176
-0.032765713 -0.030617142 0.56400001 4280748301
-0.031691428 -0.030617142 0.56400001 4280356115
-0.030671427 -0.030671427 0.565 4279962894
-0.029595239 -0.030671427 0.565 4280159242
-0.028519047 -0.030671427 0.565 4280421637
-0.027394285 -0.030617142 0.56400001 4279633665
-0.026319999 -0.030617142 0.56400001 4278846465
-0.025245715 -0.030617142 0.56400001 4278714882
-0.024171429 -0.030617142 0.56400001 4278583813
-0.023097143 -0.030617142 0.56400001 4278780424
-0.022022858 -0.030617142 0.56400001 4279043081
-0.020948572 -0.030617142 0.56400001 4279436554
-0.017966667 -0.02926 0.53900003 4280355349
-0.01694 -0.02926 0.53900003 4280946193
-0.015883811 -0.029205715 0.53800005 4280815118
-0.014831428 -0.029151427 0.537 4280684040
-0.013808571 -0.029151427 0.537 4280946946
-0.012761905 -0.029097142 0.53600001 4281210376
-0.011719048 -0.029042857 0.53500003 4280882447
-0.010660001 -0.028934287 0.53300005 4280557065
-0.0096266661 -0.028879998 0.53200001 4280753924
-0.0086133331 -0.028879998 0.53200001 4280885506
-0.0075857146 -0.028825713 0.53100002 4280951041
-0.0065742861 -0.028825713 0.53100002 4280951061
-0.0055523813 -0.028771428 0.53000003 4281147177
-0.0045342864 -0.028717143 0.52900004 4281277738
-0.0035266669 -0.028717143 0.52900004 4281147691
-0.0025142855 -0.028662857 0.528 4281016863
-0.0015114287 -0.028717143 0.52900004 4281279252
-0.00050285715 -0.028662857 0.528 4281541917
0.00050190475 -0.028608572 0.52700001 4281737511
0.0015057144 -0.028608572 0.52700001 4282000428
0.0025095239 -0.028608572 0.52700001 4282065714
0.0035133334 -0.028608572 0.52700001 4282130481
0.0045171427 -0.028608572 0.52700001 4281999408
0.0055104764 -0.028554287 0.52600002 4281870893
0.0065123811 -0.028554287 0.52600002 4282264363
0.0075142859 -0.028554287 0.52600002 4282723371
0.0085161906 -0.028554287 0.52600002 4282920491
0.0095180953 -0.028554287 0.52600002 4283183677
0.01052 -0.028554287 0.52600002 4283314511
0.011521905 -0.028554287 0.52600002 4283510848
0.012547619 -0.028608572 0.52700001 4283642418
0.013525715 -0.028554287 0.52600002 4283839798
0.01452762 -0.028554287 0.52600002 4284298043
0.015559047 -0.028608572 0.52700001 4284756550
0.016562859 -0.028608572 0.52700001 4284560210
0.017533332 -0.028554287 0.52600002 4284363860
0.01853524 -0.028554287 0.52600002 4284495959
0.019500002 -0.0285 0.52500004 4284565579
0.020539049 -0.028554287 0.52600002 4285220671
0.021540953 -0.028554287 0.52600002 4285876042
0.022542858 -0.028554287 0.52600002 4287132502
0.023544762 -0.028554287 0.52600002 4288377431
0.024593333 -0.028608572 0.52700001 4287259481
0.025645714 -0.028662857 0.528 4286143844
0.026701907 -0.028717143 0.52900004 4285547120
0.027709527 -0.028717143 0.52900004 4284957281
0.028771428 -0.028771428 0.53000003 4284826451
0.029780954 -0.028771428 0.53000003 4284695883
0.030790478 -0.028771428 0.53000003 4284564548
0.031919997 -0.028879998 0.53200001 4284433212
0.032933336 -0.028879998 0.53200001 4284432948
0.033946667 -0.028879998 0.53200001 4284432695
0.034959998 -0.028879998 0.53200001 4284367163
0.036108572 -0.028988572 0.53400004 4284367159
0.037195239 -0.029042857 0.53500003 4284236083
0.038285714 -0.029097142 0.53600001 4284105009
0.039379999 -0.029151427 0.537 4284235311
0.040478099 -0.029205715 0.53800005 4284365878
0.041657142 -0.029314285 0.54000002 4284234046
0.04260667 -0.02926 0.53900003 4284167995
0.043633334 -0.02926 0.53900003 4283970873
0.045322862 -0.029694287 0.54700005 4283842113
0.046449527 -0.029748574 0.54800004 4283711562
0.04740667 -0.029694287 0.54700005 4283581265
0.048537146 -0.029748574 0.54800004 4284430168
0.049580958 -0.029748574 0.54800004 4285299059
0.050717145 -0.029802859 0.54900002 4287268751
0.051668573 -0.029748574 0.54800004 4289171082
0.052712385 -0.029748574 0.54800004 4289040262
-0.050666668 -0.029333333 0.56 4280489731
-0.049600001 -0.029333333 0.56 4280489489
-0.04844667 -0.029280953 0.55900002 4280685855
-0.047381904 -0.029280953 0.55900002 4280881957
-0.046399999 -0.029333333 0.56 4281010731
-0.04533333 -0.029333333 0.56 4281146166
-0.044266667 -0.029333333 0.56 4282330433
-0.043200001 -0.029333333 0.56 4283513674
-0.042133335 -0.029333333 0.56 4283189587
-0.041066665 -0.029333333 0.56 4282857018
-0.040071432 -0.029385718 0.56100005 4282262562
-0.039002858 -0.029385718 0.56100005 4281670937
-0.03800191 -0.029438097 0.56200004 4281080849
-0.036931433 -0.029438097 0.56200004 4280556301
-0.035924762 -0.029490478 0.56300002 4280228362
-0.034728575 -0.029385718 0.56100005 4279900423
-0.033660002 -0.029385718 0.56100005 4280028420
-0.032591432 -0.029385718 0.56100005 4280225037
-0.031579047 -0.029438097 0.56200004 4280159511
-0.030508572 -0.029438097 0.56200004 4280159249
-0.029438097 -0.029438097 0.56200004 4280617995
-0.028468572 -0.029542858 0.56400001 4281142278
-0.027394285 -0.029542858 0.56400001 4280093442
-0.026319999 -0.029542858 0.56400001 4279043329
-0.025245715 -0.029542858 0.56400001 4278845953
-0.024171429 -0.029542858 0.56400001 4278714885
-0.023097143 -0.029542858 0.56400001 4278780681
-0.022022858 -0.029542858 0.56400001 4278912007
-0.020948572 -0.029542858 0.56400001 4279502086
-0.018066667 -0.028390478 0.54200006 4280749323
-0.017002858 -0.028338095 0.54100001 4281404426
-0.015913334 -0.028233334 0.53900003 4281142025
-0.014886667 -0.028233334 0.53900003 4280947206
-0.013834286 -0.028180953 0.53800005 4280947971
-0.012785714 -0.028128572 0.537 4280948234
-0.011740953 -0.028076192 0.53600001 4280948498
-0.010660001 -0.02791905 0.53300005 4280949518
-0.0096447626 -0.02791905 0.53300005 4281015818
-0.0086133331 -0.027866667 0.53200001 4281080839
-0.0076000001 -0.027866667 0.53200001 4281015044
-0.0065866667 -0.027866667 0.53200001 4280950290
-0.0055628573 -0.027814288 0.53100002 4281210143
-0.0045514288 -0.027814288 0.53100002 4281540385
-0.0035333335 -0.027761906 0.53000003 4281475108
-0.0025190478 -0.027709527 0.52900004 4281410071
-0.0015114287 -0.027709527 0.52900004 4281541130
-0.00050380954 -0.027709527 0.52900004 4281737240
0.00050285715 -0.027657142 0.528 4281933351
0.0015085714 -0.027657142 0.528 4282130484
0.0025095239 -0.027604762 0.52700001 4282262081
0.0035133334 -0.027604762 0.52700001 4282458424
0.0045171427 -0.027604762 0.52700001 4282523694
0.0055209524 -0.027604762 0.52700001 4282589483
0.0065247621 -0.027604762 0.52700001 4282851881
0.0075142859 -0.027552381 0.52600002 4283116074
0.0085161906 -0.027552381 0.52600002 4283182379
0.0095180953 -0.027552381 0.52600002 4283314488
0.01054 -0.027604762 0.52700001 4283445061
0.011521905 -0.027552381 0.52600002 4283576372
0.012547619 -0.027604762 0.52700001 4283708195
0.013551429 -0.027604762 0.52700001 4283905326
0.014555238 -0.027604762 0.52700001 4284167993
0.015559047 -0.027604762 0.52700001 4284430661
0.016562859 -0.027604762 0.52700001 4284431440
0.017566666 -0.027604762 0.52700001 4284430422
0.018570477 -0.027604762 0.52700001 4284429660
0.019537143 -0.027552381 0.52600002 4284431953
0.020578096 -0.027604762 0.52700001 4285352007
0.021581905 -0.027604762 0.52700001 4286339421
0.022585714 -0.027604762 0.52700001 4287327603
0.023589525 -0.027604762 0.52700001 4288310639
0.024639999 -0.027657142 0.528 4287458666
0.025694286 -0.027709527 0.52900004 4286668648
0.026701907 -0.027709527 0.52900004 4285676134
0.027761906 -0.027761906 0.53000003 4284693083
0.028825713 -0.027814288 0.53100002 4284562001
0.029837143 -0.027814288 0.53100002 4284498505
0.030848574 -0.027814288 0.53100002 4284040769
0.031919997 -0.027866667 0.53200001 4283647802
0.032933336 -0.027866667 0.53200001 4283975988
0.034010477 -0.02791905 0.53300005 4284301624
0.03502572 -0.02791905 0.53300005 4284367165
0.03617619 -0.028023811 0.53500003 4284432444
0.037264764 -0.028076192 0.53600001 4284235579
0.038357142 -0.028128572 0.537 4284103988
0.039453335 -0.028180953 0.53800005 4284300078
0.040553335 -0.028233334 0.53900003 4284495655
0.041734286 -0.028338095 0.54100001 4284363552
0.042764761 -0.028338095 0.54100001 4284233000
0.044199999 -0.0286 0.546 4283971121
0.04524 -0.0286 0.546 4283711038
0.046449527 -0.028704762 0.54800004 4283320139
0.047493335 -0.028704762 0.54800004 4282924369
0.048537146 -0.028704762 0.54800004 4284167767
0.049580958 -0.028704762 0.54800004 4285494646
0.050717145 -0.028757144 0.54900002 4287332757
0.051762857 -0.028757144 0.54900002 4289236107
0.052712385 -0.028704762 0.54800004 4289107842
-0.049600001 -0.028266666 0.56 4280029957
-0.04844667 -0.028216191 0.55900002 4280423690
-0.047466666 -0.028266666 0.56 4280880902
-0.046399999 -0.028266666 0.56 4280945666
-0.045252379 -0.028216191 0.55900002 4281010698
-0.044345718 -0.028317144 0.56100005 4281734163
-0.043122858 -0.028216191 0.55900002 4282457643
-0.042133335 -0.028266666 0.56 4282325827
-0.041140001 -0.028317144 0.56100005 4282259767
-0.040071432 -0.028317144 0.56100005 4281869099
-0.039002858 -0.028317144 0.56100005 4281475356
-0.03800191 -0.02836762 0.56200004 4281081870
-0.036865719 -0.028317144 0.56100005 4280688396
-0.035797145 -0.028317144 0.56100005 4280490763
-0.034728575 -0.028317144 0.56100005 4280293894
-0.033660002 -0.028317144 0.56100005 4280356609
-0.032591432 -0.028317144 0.56100005 4280420878
-0.031522859 -0.028317144 0.56100005 4280159515
-0.030508572 -0.02836762 0.56200004 4279962644
-0.029542858 -0.028468572 0.56400001 4280290317
-0.028468572 -0.028468572 0.56400001 4280617992
-0.027394285 -0.028468572 0.56400001 4279962115
-0.026319999 -0.028468572 0.56400001 4279371522
-0.025245715 -0.028468572 0.56400001 4279042561
-0.024171429 -0.028468572 0.56400001 4278780421
-0.023097143 -0.028468572 0.56400001 4278714890
-0.022022858 -0.028468572 0.56400001 4278649862
-0.020948572 -0.028468572 0.56400001 4279437314
-0.018133335 -0.027459048 0.54400003 4280684545
-0.017034287 -0.027358098 0.54200006 4281143554
-0.015942857 -0.027257143 0.54000002 4281013252
-0.014886667 -0.027206667 0.53900003 4280882948
-0.013834286 -0.027156193 0.53800005 4280948228
-0.012785714 -0.027105715 0.537 4281012748
-0.011740953 -0.027055239 0.53600001 4281079061
-0.01068 -0.026954288 0.53400004 4281145362
-0.0096447626 -0.026903812 0.53300005 4281210384
-0.0086295241 -0.026903812 0.53300005 4281341196
-0.0076000001 -0.026853334 0.53200001 4281276424
-0.0065866667 -0.026853334 0.53200001 4281211919
-0.0055733337 -0.026853334 0.53200001 4281343510
-0.0045600003 -0.026853334 0.53200001 4281475353
-0.0035466666 -0.026853334 0.53200001 4281475357
-0.0025285715 -0.026802858 0.53100002 4281410319
-0.0015142858 -0.026752383 0.53000003 4281671169
-0.00050380954 -0.026701907 0.52900004 4281866772
0.00050380954 -0.026701907 0.52900004 4282063655
0.0015085714 -0.026651427 0.528 4282260796
0.0025142855 -0.026651427 0.528 4282458705
0.00352 -0.026651427 0.528 4282721343
0.0045257141 -0.026651427 0.528 4282786861
0.0055209524 -0.026600951 0.52700001 4282852650
0.0065247621 -0.026600951 0.52700001 4283114279
0.0075285714 -0.026600951 0.52700001 4283377961
0.0085323816 -0.026600951 0.52700001 4283378731
0.0095361909 -0.026600951 0.52700001 4283445555
0.01054 -0.026600951 0.52700001 4283707707
0.011543809 -0.026600951 0.52700001 4283969831
0.012547619 -0.026600951 0.52700001 4283970580
0.013551429 -0.026600951 0.52700001 4283972646
0.014555238 -0.026600951 0.52700001 4284235064
0.015559047 -0.026600951 0.52700001 4284431939
0.016562859 -0.026600951 0.52700001 4284300367
0.017566666 -0.026600951 0.52700001 4284170328
0.018570477 -0.026600951 0.52700001 4284233825
0.019574285 -0.026600951 0.52700001 4284363352
0.020578096 -0.026600951 0.52700001 4285550928
0.021581905 -0.026600951 0.52700001 4286737264
0.022628572 -0.026651427 0.528 4287528593
0.02367905 -0.026701907 0.52900004 4288385158
0.024686668 -0.026701907 0.52900004 4287262844
0.025742857 -0.026752383 0.53000003 4286210668
0.026752383 -0.026752383 0.53000003 4285481052
0.027814288 -0.026802858 0.53100002 4284822869
0.028825713 -0.026802858 0.53100002 4284627791
0.029837143 -0.026802858 0.53100002 4284497991
0.030906666 -0.026853334 0.53200001 4284171327
0.031919997 -0.026853334 0.53200001 4283844409
0.032933336 -0.026853334 0.53200001 4283974196
0.034010477 -0.026903812 0.53300005 4284102970
0.03502572 -0.026903812 0.53300005 4284170304
0.03617619 -0.027004763 0.53500003 4284169793
0.037264764 -0.027055239 0.53600001 4283972931
0.038357142 -0.027105715 0.537 4283840056
0.039453335 -0.027156193 0.53800005 4283970349
0.040628571 -0.027257143 0.54000002 4284100887
0.041811433 -0.027358098 0.54200006 4284101122
0.042922862 -0.027408574 0.54300004 4284101654
0.044119049 -0.027509524 0.54500002 4283971114
0.04524 -0.027559999 0.546 4283842107
0.046449527 -0.027660955 0.54800004 4283513676
0.047493335 -0.027660955 0.54800004 4283250769
0.048537146 -0.027660955 0.54800004 4284496471
0.049580958 -0.027660955 0.54800004 4285756025
0.050717145 -0.027711431 0.54900002 4287530396
0.051762857 -0.027711431 0.54900002 4289309325
-0.047466666 -0.027199998 0.56 4280882186
-0.046399999 -0.027199998 0.56 4280881674
-0.04533333 -0.027199998 0.56 4280947722
-0.044266667 -0.027199998 0.56 4281210378
-0.043200001 -0.027199998 0.56 4281472544
