# .PCD v0.7 - Point Cloud Data file format
VERSION 0.7
FIELDS x y z rgba
SIZE 4 4 4 4
TYPE F F F U
COUNT 1 1 1 1
WIDTH 1068
HEIGHT 1
VIEWPOINT 0 0 0 1 0 0 0
POINTS 1068
DATA ascii
-0.010730477 0.13723716 0.59300005 4283580750
-0.0096171433 0.13746858 0.59400004 4283580492
-0.0084714293 0.13723716 0.59300005 4283514699
-0.007354286 0.13746858 0.59400004 4283448899
-0.0062228576 0.13746858 0.59400004 4283251771
-0.0051085716 0.13793144 0.59600002 4283054657
-0.0039866669 0.1383943 0.59800005 4282988359
-0.002852381 0.13862573 0.59900004 4282857031
-0.0017114287 0.13862573 0.59900004 4282922823
-0.00057142857 0.13885714 0.60000002 4282988614
0.00057142857 0.13885714 0.60000002 4283054662
0.0017171428 0.13908857 0.60100001 4283120456
0.0028619049 0.13908857 0.60100001 4283120202
0.0040200003 0.13955143 0.60300004 4283120200
0.0051600006 0.13932002 0.60200006 4283120454
0.0062961904 0.13908857 0.60100001 4283055176
0.0074533341 0.13932002 0.60200006 4283120715
0.0086000003 0.13932002 0.60200006 4283251787
0.009730476 0.13908857 0.60100001 4283251788
0.010911429 0.13955143 0.60300004 4283251787
0.01202 0.13908857 0.60100001 4283252298
0.013208573 0.13955143 0.60300004 4283318600
0.014404762 0.14001429 0.60500002 4283252806
0.015531429 0.13978286 0.60400003 4283252808
0.016681906 0.13978286 0.60400003 4283251530
0.017891428 0.14024571 0.60600001 4283317068
0.019077145 0.14047715 0.60700005 4283383374
0.020266667 0.14070857 0.60800004 4283450446
0.021424763 0.14070857 0.60800004 4283515726
0.022582859 0.14070857 0.60800004 4283581263
0.023740953 0.14070857 0.60800004 4283646800
0.024940001 0.14094 0.60900003 4283712335
0.0261 0.14094 0.60900003 4283778639
0.02726 0.14094 0.60900003 4283844942
0.028420001 0.14094 0.60900003 4283910478
0.029580001 0.14094 0.60900003 4283976270
0.030840952 0.14140286 0.611 4284042063
0.032109525 0.14186573 0.61300004 4284107856
0.033331428 0.14209715 0.61400002 4284173906
0.034500953 0.14209715 0.61400002 4284305487
0.035612382 0.14186573 0.61300004 4284305484
0.036720004 0.1416343 0.61200005 4284371278
0.037885718 0.1416343 0.61200005 4284371537
0.039115239 0.14186573 0.61300004 4284306514
0.060119048 0.14464286 0.625 4287057466
0.061309524 0.14464286 0.625 4287713358
0.0625 0.14464286 0.625 4288237667
0.063690476 0.14464286 0.625 4288827739
-0.057780001 0.1323 0.56700003 4292855408
-0.056700002 0.1323 0.56700003 4294036598
-0.055521909 0.13206668 0.56600004 4294103932
-0.054443814 0.13206668 0.56600004 4294171777
-0.038813334 0.13393334 0.574 4288515959
-0.037719999 0.13393334 0.574 4288119923
-0.030538093 0.13603334 0.583 4282396250
-0.02942762 0.13603334 0.583 4282134350
-0.028268572 0.1358 0.58200002 4282265922
-0.027160002 0.1358 0.58200002 4282463037
-0.026140954 0.13626668 0.58400005 4282857017
-0.025028573 0.13626668 0.58400005 4283250493
-0.021765715 0.13673334 0.58600003 4283317838
-0.020649524 0.13673334 0.58600003 4283448397
-0.019533332 0.13673334 0.58600003 4283316812
-0.018448571 0.13696666 0.58700001 4283185739
-0.017330477 0.13696666 0.58700001 4283185994
-0.016240001 0.1372 0.588 4283252045
-0.015120001 0.1372 0.588 4283318097
-0.014 0.1372 0.588 4283385425
-0.012945714 0.13789999 0.59100002 4283517265
-0.011860001 0.13836668 0.59300005 4283647569
-0.010730477 0.13836668 0.59300005 4283647057
-0.0096333344 0.13883334 0.59500003 4283712078
-0.0084857149 0.13860001 0.59400004 4283646282
-0.007366667 0.13883334 0.59500003 4283580484
-0.0062333331 0.13883334 0.59500003 4283449151
-0.0051085716 0.13906667 0.59600002 4283317316
-0.0039866669 0.13953334 0.59800005 4283184714
-0.002852381 0.13976666 0.59900004 4283054154
-0.0017114287 0.13976666 0.59900004 4283120201
-0.00057142857 0.14 0.60000002 4283185736
0.00057142857 0.14 0.60000002 4283185991
0.0017171428 0.14023332 0.60100001 4283185992
0.0028619049 0.14023332 0.60100001 4283186248
0.0040200003 0.14070001 0.60300004 4283251785
0.0051600006 0.14046669 0.60200006 4283252041
0.0062961904 0.14023332 0.60100001 4283252043
0.0074533341 0.14046669 0.60200006 4283252302
0.0085714282 0.14 0.60000002 4283317583
0.009730476 0.14023332 0.60100001 4283251792
0.010875239 0.14023332 0.60100001 4283252047
0.01202 0.14023332 0.60100001 4283318095
0.013208573 0.14070001 0.60300004 4283383628
0.014380952 0.14093335 0.60400003 4283318090
0.015531429 0.14093335 0.60400003 4283318859
0.016681906 0.14093335 0.60400003 4283316813
0.017891428 0.14139999 0.60600001 4283382863
0.019077145 0.14163335 0.60700005 4283449169
0.020233335 0.14163335 0.60700005 4283581520
0.021424763 0.14186667 0.60800004 4283712592
0.022582859 0.14186667 0.60800004 4283843410
0.023740953 0.14186667 0.60800004 4283843413
0.024940001 0.14210001 0.60900003 4283909205
0.0261 0.14210001 0.60900003 4283976022
0.027215241 0.14186667 0.60800004 4284107092
0.028373335 0.14186667 0.60800004 4284238163
0.029580001 0.14210001 0.60900003 4284370005
0.036720004 0.14280002 0.61200005 4284896082
0.037885718 0.14280002 0.61200005 4284699988
-0.058860004 0.13338001 0.56700003 4291427530
-0.057780001 0.13338001 0.56700003 4291165143
-0.056700002 0.13338001 0.56700003 4290968294
-0.055620003 0.13338001 0.56700003 4290441205
-0.054540001 0.13338001 0.56700003 4289848550
-0.046466667 0.13502666 0.574 4286871173
-0.045294289 0.13479143 0.57300001 4286604180
-0.04420286 0.13479143 0.57300001 4286337426
-0.043186668 0.13502666 0.574 4286006928
-0.042093333 0.13502666 0.574 4285741968
-0.040999997 0.13502666 0.574 4285608593
-0.039906666 0.13502666 0.574 4285475209
-0.038813334 0.13502666 0.574 4285342337
-0.037719999 0.13502666 0.574 4285209712
-0.032478098 0.13596763 0.57800001 4283316289
-0.03137714 0.13596763 0.57800001 4282920769
-0.030433334 0.13667333 0.58100003 4282790465
-0.029276192 0.1364381 0.58000004 4282725959
-0.028171429 0.1364381 0.58000004 4282791757
-0.027066668 0.1364381 0.58000004 4282857790
-0.026006667 0.13667333 0.58100003 4283054895
-0.024900001 0.13667333 0.58100003 4283252284
-0.022842858 0.13761429 0.58500004 4283186506
-0.021765715 0.13784952 0.58600003 4283318092
-0.020649524 0.13784952 0.58600003 4283515213
-0.019533332 0.13784952 0.58600003 4283449422
-0.018448571 0.13808475 0.58700001 4283383885
-0.017330477 0.13808475 0.58700001 4283317837
-0.016240001 0.13831998 0.588 4283317584
-0.015145715 0.13855526 0.58900005 4283383892
-0.014023811 0.13855526 0.58900005 4283517011
-0.012945714 0.13902572 0.59100002 4283648338
-0.01184 0.13926095 0.59200001 4283779411
-0.010730477 0.13949619 0.59300005 4283779157
-0.0096171433 0.13973144 0.59400004 4283844687
-0.0084857149 0.13973144 0.59400004 4283779146
-0.007366667 0.13996668 0.59500003 4283779142
-0.0062333331 0.13996668 0.59500003 4283646787
-0.0051085716 0.14020191 0.59600002 4283514440
-0.00398 0.14043714 0.597 4283382862
-0.002852381 0.14090762 0.59900004 4283316813
-0.0017114287 0.14090762 0.59900004 4283251788
-0.00057142857 0.14114286 0.60000002 4283252298
0.00057142857 0.14114286 0.60000002 4283317321
0.0017171428 0.1413781 0.60100001 4283317832
0.0028619049 0.1413781 0.60100001 4283383623
0.0040133335 0.14161335 0.60200006 4283384138
0.0051600006 0.14161335 0.60200006 4283449677
0.0062961904 0.1413781 0.60100001 4283515215
0.0074533341 0.14161335 0.60200006 4283515729
0.0085857147 0.1413781 0.60100001 4283516242
0.009730476 0.1413781 0.60100001 4283515732
0.010893334 0.14161335 0.60200006 4283515476
0.012040001 0.14161335 0.60200006 4283581268
0.013252381 0.14231904 0.60500002 4283647057
0.014404762 0.14231904 0.60500002 4283647054
0.015531429 0.14208381 0.60400003 4283647055
0.016709523 0.14231904 0.60500002 4283712593
0.017891428 0.1425543 0.60600001 4283712850
0.019077145 0.14278954 0.60700005 4283778900
0.020233335 0.14278954 0.60700005 4283910483
0.021389525 0.14278954 0.60700005 4283976530
0.022582859 0.14302477 0.60800004 4284108374
0.023740953 0.14302477 0.60800004 4284107098
0.024899049 0.14302477 0.60800004 4284040539
0.0261 0.14326 0.60900003 4284173917
0.027215241 0.14302477 0.60800004 4284240475
0.028373335 0.14302477 0.60800004 4284371033
-0.059940003 0.13446002 0.56700003 4292988600
-0.058860004 0.13446002 0.56700003 4291148211
-0.057881907 0.13469715 0.56800002 4289504686
-0.056700002 0.13446002 0.56700003 4287924913
-0.055620003 0.13446002 0.56700003 4286738356
-0.054732382 0.13493429 0.56900001 4285554596
-0.053648572 0.13493429 0.56900001 4285091988
-0.053026669 0.13611999 0.574 4284628614
-0.051933333 0.13611999 0.574 4283510136
-0.050839998 0.13611999 0.574 4282393202
-0.049660001 0.13588285 0.57300001 4281931629
-0.048653331 0.13611999 0.574 4281539172
-0.047559999 0.13611999 0.574 4281474651
-0.046466667 0.13611999 0.574 4281472867
-0.045373332 0.13611999 0.574 4281602412
-0.04420286 0.13588285 0.57300001 4281800043
-0.043186668 0.13611999 0.574 4281932138
-0.042093333 0.13611999 0.574 4282071402
-0.040999997 0.13611999 0.574 4282065771
-0.039976191 0.13635716 0.57500005 4282132072
-0.038813334 0.13611999 0.574 4282198374
-0.037785716 0.13635716 0.57500005 4282329691
-0.036690477 0.13635716 0.57500005 4282526799
-0.035595242 0.13635716 0.57500005 4282724688
-0.034500003 0.13635716 0.57500005 4283053648
-0.033637147 0.13730574 0.57900006 4283381580
-0.03253429 0.13730574 0.57900006 4283316295
-0.031431429 0.13730574 0.57900006 4283251527
-0.030380953 0.13754287 0.58000004 4283252294
-0.029276192 0.13754287 0.58000004 4283317832
-0.028171429 0.13754287 0.58000004 4283317835
-0.027066668 0.13754287 0.58000004 4283317828
-0.026006667 0.13778001 0.58100003 4283318078
-0.024942858 0.13801715 0.58200002 4283318341
-0.023875238 0.13825428 0.583 4283187532
-0.022803811 0.13849144 0.58400005 4283122509
-0.021728573 0.13872857 0.58500004 4283319630
-0.020649524 0.13896571 0.58600003 4283581774
-0.019533332 0.13896571 0.58600003 4283581775
-0.018448571 0.13920286 0.58700001 4283581263
-0.017330477 0.13920286 0.58700001 4283449934
-0.016240001 0.13944 0.588 4283384401
-0.015145715 0.13967715 0.58900005 4283515477
-0.01404762 0.13991429 0.59000003 4283713876
-0.012945714 0.14015144 0.59100002 4283779668
-0.01184 0.14038858 0.59200001 4283910999
-0.010712381 0.14038858 0.59200001 4283976794
-0.0096171433 0.14086287 0.59400004 4284042067
-0.0084857149 0.14086287 0.59400004 4283976524
-0.007366667 0.14110002 0.59500003 4283976264
-0.0062438096 0.14133714 0.59600002 4283845188
-0.0051085716 0.14133714 0.59600002 4283777351
-0.0039933338 0.14204858 0.59900004 4283645002
-0.002852381 0.14204858 0.59900004 4283579977
-0.0017114287 0.14204858 0.59900004 4283449671
-0.00057142857 0.14228572 0.60000002 4283383368
0.00057238096 0.14252286 0.60100001 4283448137
0.0017171428 0.14252286 0.60100001 4283514698
0.0028619049 0.14252286 0.60100001 4283514955
0.0040133335 0.14276001 0.60200006 4283580493
0.0051600006 0.14276001 0.60200006 4283646288
0.0062961904 0.14252286 0.60100001 4283777874
0.0074533341 0.14276001 0.60200006 4283778644
0.0085714282 0.14228572 0.60000002 4283778902
0.009730476 0.14252286 0.60100001 4283779160
0.010875239 0.14252286 0.60100001 4283844695
0.01202 0.14252286 0.60100001 4283844951
0.013252381 0.14347143 0.60500002 4283910487
0.014428572 0.14370857 0.60600001 4283976023
0.015557144 0.14347143 0.60500002 4284041559
0.016737143 0.14370857 0.60600001 4284041559
0.017891428 0.14370857 0.60600001 4284107097
0.019077145 0.14394574 0.60700005 4284172635
0.020233335 0.14394574 0.60700005 4284238680
0.021389525 0.14394574 0.60700005 4284304981
0.022582859 0.14418288 0.60800004 4284436566
0.023740953 0.14418288 0.60800004 4284306519
0.024899049 0.14418288 0.60800004 4284240984
-0.060804762 0.1350619 0.565 4286579153
-0.059940003 0.13553999 0.56700003 4286120370
-0.058860004 0.13553999 0.56700003 4285661596
-0.057780001 0.13553999 0.56700003 4285137286
-0.056700002 0.13553999 0.56700003 4284678525
-0.055620003 0.13553999 0.56700003 4284285300
-0.054732382 0.1360181 0.56900001 4283826530
-0.05374286 0.13625714 0.57000005 4283764049
-0.053026669 0.13721333 0.574 4283767110
-0.051933333 0.13721333 0.574 4283372859
-0.050751429 0.13697428 0.57300001 4283044150
-0.049573336 0.13673525 0.57200003 4282588466
-0.048568573 0.13697428 0.57300001 4282198329
-0.047559999 0.13721333 0.574 4282329920
-0.046466667 0.13721333 0.574 4282461506
-0.045373332 0.13721333 0.574 4282527556
-0.04428 0.13721333 0.574 4282659140
-0.043186668 0.13721333 0.574 4282790981
-0.042166673 0.13745239 0.57500005 4282857541
-0.041071434 0.13745239 0.57500005 4282857541
-0.039976191 0.13745239 0.57500005 4282857800
-0.038813334 0.13721333 0.574 4282858060
-0.037719999 0.13721333 0.574 4282923845
-0.036690477 0.13745239 0.57500005 4283054911
-0.035595242 0.13745239 0.57500005 4283120456
-0.034680001 0.13816953 0.57800001 4283317329
-0.033579048 0.13816953 0.57800001 4283579983
-0.032478098 0.13816953 0.57800001 4283514702
-0.031431429 0.13840859 0.57900006 4283449677
-0.030380953 0.13864763 0.58000004 4283449676
-0.029225716 0.13840859 0.57900006 4283515466
-0.028171429 0.13864763 0.58000004 4283449929
-0.027066668 0.13864763 0.58000004 4283449931
-0.026006667 0.13888668 0.58100003 4283449933
-0.024942858 0.13912572 0.58200002 4283515470
-0.023875238 0.13936476 0.583 4283449936
-0.022842858 0.13984287 0.58500004 4283450960
-0.021728573 0.13984287 0.58500004 4283516240
-0.020649524 0.14008191 0.58600003 4283648336
-0.019533332 0.14008191 0.58600003 4283648337
-0.018448571 0.14032096 0.58700001 4283714128
-0.017330477 0.14032096 0.58700001 4283648080
-0.01626762 0.14079905 0.58900005 4283582291
-0.015145715 0.14079905 0.58900005 4283648342
-0.01404762 0.1410381 0.59000003 4283714390
-0.012945714 0.14127715 0.59100002 4283845462
-0.01184 0.14151618 0.59200001 4283977307
-0.010712381 0.14151618 0.59200001 4284042848
-0.0096009532 0.14175525 0.59300005 4284173911
-0.0084571429 0.14151618 0.59200001 4284108111
-0.007329524 0.14151618 0.59200001 4284042570
-0.0062438096 0.14247239 0.59600002 4283976517
-0.0051085716 0.14247239 0.59600002 4283909446
-0.0039933338 0.14318953 0.59900004 4283778375
-0.0028571428 0.14342858 0.60000002 4283712837
-0.0017142858 0.14342858 0.60000002 4283647299
-0.00057142857 0.14342858 0.60000002 4283582022
0.00057238096 0.14366761 0.60100001 4283581514
0.0017171428 0.14366761 0.60100001 4283646796
0.0028619049 0.14366761 0.60100001 4283712847
0.0040133335 0.14390668 0.60200006 4283779153
0.0051600006 0.14390668 0.60200006 4283844692
0.0062961904 0.14366761 0.60100001 4283976021
0.0074533341 0.14390668 0.60200006 4284041559
0.0085857147 0.14366761 0.60100001 4284172890
0.009730476 0.14366761 0.60100001 4284108125
0.010911429 0.14414573 0.60300004 4284043355
0.012060001 0.14414573 0.60300004 4284108890
0.014428572 0.14486286 0.60600001 4284240225
0.015557144 0.14462382 0.60500002 4284306271
0.016737143 0.14486286 0.60600001 4284371294
0.017891428 0.14486286 0.60600001 4284436576
-0.060912386 0.13637906 0.56600004 4278321539
-0.05983429 0.13637906 0.56600004 4279239029
-0.058756195 0.13637906 0.56600004 4280223087
-0.057780001 0.13662 0.56700003 4280879465
-0.056700002 0.13662 0.56700003 4281537378
-0.055521909 0.13637906 0.56600004 4281867611
-0.054540001 0.13662 0.56700003 4282198103
-0.053460002 0.13662 0.56700003 4282528594
-0.052934285 0.13806573 0.57300001 4282924105
-0.051842857 0.13806573 0.57300001 4283319616
-0.050751429 0.13806573 0.57300001 4283712574
-0.049486667 0.13758382 0.57100004 4283319099
-0.048568573 0.13806573 0.57300001 4282925889
-0.047559999 0.13830666 0.574 4283188038
-0.046466667 0.13830666 0.574 4283449415
-0.045373332 0.13830666 0.574 4283514185
-0.04428 0.13830666 0.574 4283579977
-0.043186668 0.13830666 0.574 4283645770
-0.042166673 0.13854763 0.57500005 4283711562
-0.041071434 0.13854763 0.57500005 4283646282
-0.039976191 0.13854763 0.57500005 4283580236
-0.038813334 0.13830666 0.574 4283579982
-0.037785716 0.13854763 0.57500005 4283579978
-0.036690477 0.13854763 0.57500005 4283580229
-0.035657145 0.13878858 0.57600003 4283580234
-0.034680001 0.13927048 0.57800001 4283645776
-0.033579048 0.13927048 0.57800001 4283777103
-0.032478098 0.13927048 0.57800001 4283711823
-0.031431429 0.13951144 0.57900006 4283711822
-0.030328574 0.13951144 0.57900006 4283712078
-0.029225716 0.13951144 0.57900006 4283712333
-0.028122859 0.13951144 0.57900006 4283647308
-0.027066668 0.13975239 0.58000004 4283581772
-0.026006667 0.13999334 0.58100003 4283647309
-0.024942858 0.14023429 0.58200002 4283712590
-0.023875238 0.14047524 0.583 4283712592
-0.022803811 0.1407162 0.58400005 4283778127
-0.02169143 0.1407162 0.58400005 4283778383
-0.020649524 0.1411981 0.58600003 4283780176
-0.019533332 0.1411981 0.58600003 4283780177
-0.018448571 0.14143905 0.58700001 4283845457
-0.017330477 0.14143905 0.58700001 4283779410
-0.01626762 0.14192097 0.58900005 4283779667
-0.015145715 0.14192097 0.58900005 4283780180
-0.014071429 0.14240287 0.59100002 4283780181
-0.012945714 0.14240287 0.59100002 4283911254
-0.01184 0.14264381 0.59200001 4284108376
-0.010712381 0.14264381 0.59200001 4284173914
-0.0095847622 0.14264381 0.59200001 4284304981
-0.0084571429 0.14264381 0.59200001 4284239440
-0.007329524 0.14264381 0.59200001 4284173646
-0.0028571428 0.14457142 0.60000002 4283909962
-0.0017171428 0.14481239 0.60100001 4283844423
-0.00057333341 0.14505334 0.60200006 4283778635
0.00057333341 0.14505334 0.60200006 4283777870
0.0017228572 0.14529429 0.60300004 4283778386
0.0028666668 0.14505334 0.60200006 4283844437
0.0040133335 0.14505334 0.60200006 4283976020
0.0051514283 0.14481239 0.60100001 4284042067
0.0062961904 0.14481239 0.60100001 4284173140
0.0074533341 0.14505334 0.60200006 4284370004
0.0085857147 0.14481239 0.60100001 4284567127
0.009730476 0.14481239 0.60100001 4284436569
0.010911429 0.14529429 0.60300004 4284305498
0.012060001 0.14529429 0.60300004 4284371547
-0.06188095 0.13721429 0.565 4280556083
-0.060804762 0.13721429 0.565 4280430390
-0.05983429 0.13745716 0.56600004 4281086265
-0.058756195 0.13745716 0.56600004 4281742146
-0.0576781 0.13745716 0.56600004 4282070348
-0.056600004 0.13745716 0.56600004 4282398791
-0.055521909 0.13745716 0.56600004 4282661699
-0.054540001 0.13770001 0.56700003 4282859339
-0.053460002 0.13770001 0.56700003 4283056468
-0.052472383 0.13794287 0.56800002 4283253837
-0.051571433 0.13842857 0.57000005 4283450438
-0.050485719 0.13842857 0.57000005 4283647813
-0.049313333 0.13818571 0.56900001 4283384901
-0.04839905 0.13867144 0.57100004 4283187273
-0.047477145 0.13915715 0.57300001 4283319117
-0.046466667 0.13939999 0.574 4283515469
-0.045373332 0.13939999 0.574 4283515214
-0.04428 0.13939999 0.574 4283580494
-0.043186668 0.13939999 0.574 4283645775
-0.042166673 0.13964286 0.57500005 4283776847
-0.041071434 0.13964286 0.57500005 4283711311
-0.039976191 0.13964286 0.57500005 4283711568
-0.038813334 0.13939999 0.574 4283645777
-0.037785716 0.13964286 0.57500005 4283647054
-0.036690477 0.13964286 0.57500005 4283647052
-0.035657145 0.13988572 0.57600003 4283647309
-0.034680001 0.14037143 0.57800001 4283778383
-0.033637147 0.1406143 0.57900006 4283844175
-0.03253429 0.1406143 0.57900006 4283844688
-0.031431429 0.1406143 0.57900006 4283910736
-0.030328574 0.1406143 0.57900006 4283844432
-0.029225716 0.1406143 0.57900006 4283843919
-0.028122859 0.1406143 0.57900006 4283778639
-0.027066668 0.14085715 0.58000004 4283779406
-0.026006667 0.14110002 0.58100003 4283844429
-0.024942858 0.14134286 0.58200002 4283909454
-0.023916192 0.14182858 0.58400005 4283910224
-0.022842858 0.14207143 0.58500004 4283976783
-0.021728573 0.14207143 0.58500004 4283977038
-0.020649524 0.14231429 0.58600003 4283977551
-0.019500002 0.14207143 0.58500004 4284042833
-0.018417144 0.14231429 0.58600003 4284108115
-0.017330477 0.14255714 0.58700001 4284042581
-0.01626762 0.14304286 0.58900005 4284042580
-0.015171429 0.14328572 0.59000003 4283977043
-0.014071429 0.14352857 0.59100002 4283977044
-0.012967619 0.14377144 0.59200001 4284108118
-0.01184 0.14377144 0.59200001 4284239701
-0.010712381 0.14377144 0.59200001 4284305236
-0.0095847622 0.14377144 0.59200001 4284437330
-0.0084571429 0.14377144 0.59200001 4284371537
-0.0017171428 0.14595714 0.60100001 4283844172
-0.00057333341 0.1462 0.60200006 4283779663
0.00057333341 0.1462 0.60200006 4283779667
0.0017228572 0.14644288 0.60300004 4283845207
0.0028619049 0.14595714 0.60100001 4283976796
0.0040066671 0.14595714 0.60100001 4284108631
0.0051514283 0.14595714 0.60100001 4284305491
0.0062961904 0.14595714 0.60100001 4284502610
0.0074409526 0.14595714 0.60100001 4284699474
0.0085714282 0.14571428 0.60000002 4284961876
0.0097142868 0.14571428 0.60000002 4285092438
0.010857143 0.14571428 0.60000002 4285223257
0.012060001 0.14644288 0.60300004 4285289820
-0.076539055 0.1375562 0.56200004 4286328476
-0.075199999 0.13706666 0.56 4283963531
-0.074133337 0.13706666 0.56 4281270907
-0.06188095 0.13829048 0.565 4282791486
-0.060697146 0.13804571 0.56400001 4282595391
-0.05972857 0.13829048 0.565 4282923840
-0.058652379 0.13829048 0.565 4283251526
-0.0576781 0.13853525 0.56600004 4283251789
-0.056600004 0.13853525 0.56600004 4283317579
-0.055620003 0.13878001 0.56700003 4283449161
-0.054540001 0.13878001 0.56700003 4283580494
-0.053460002 0.13878001 0.56700003 4283581267
-0.052472383 0.13902476 0.56800002 4283581262
-0.051480953 0.13926953 0.56900001 4283581258
-0.050397143 0.13926953 0.56900001 4283581770
-0.049226668 0.13902476 0.56800002 4283516234
-0.048144761 0.13902476 0.56800002 4283450444
-0.047311429 0.13975905 0.57100004 4283515982
-0.046385717 0.14024857 0.57300001 4283646791
-0.045294289 0.14024857 0.57300001 4283580480
-0.04420286 0.14024857 0.57300001 4283580230
-0.043186668 0.14049333 0.574 4283711308
-0.042166673 0.1407381 0.57500005 4283842383
-0.041071434 0.1407381 0.57500005 4283842385
-0.039976191 0.1407381 0.57500005 4283842642
-0.038813334 0.14049333 0.574 4283777363
-0.037785716 0.1407381 0.57500005 4283777618
-0.036754288 0.14098287 0.57600003 4283778129
-0.035657145 0.14098287 0.57600003 4283778641
-0.034680001 0.14147238 0.57800001 4283844688
-0.033637147 0.14171715 0.57900006 4283976273
-0.03253429 0.14171715 0.57900006 4284042322
-0.031485714 0.14196192 0.58000004 4284107858
-0.030380953 0.14196192 0.58000004 4284042323
-0.029225716 0.14171715 0.57900006 4283976275
-0.028122859 0.14171715 0.57900006 4283975763
-0.027066668 0.14196192 0.58000004 4283976017
-0.026006667 0.14220667 0.58100003 4284041808
-0.024942858 0.14245144 0.58200002 4284173137
-0.023875238 0.14269619 0.583 4284173394
-0.022842858 0.14318573 0.58500004 4284173649
-0.021765715 0.14343049 0.58600003 4284174160
-0.020684762 0.14367524 0.58700001 4284239697
-0.019566666 0.14367524 0.58700001 4284305235
-0.018448571 0.14367524 0.58700001 4284435798
-0.017330477 0.14367524 0.58700001 4284370009
-0.01626762 0.14416477 0.58900005 4284304981
-0.015171429 0.14440952 0.59000003 4284238162
-0.014071429 0.14465429 0.59100002 4284238680
-0.012967619 0.14489904 0.59200001 4284304990
-0.01184 0.14489904 0.59200001 4284370779
-0.010730477 0.14514382 0.59300005 4284502104
-0.0096009532 0.14514382 0.59300005 4284633434
-0.0084714293 0.14514382 0.59300005 4284568157
0.0028619049 0.14710191 0.60100001 4284108890
0.0040066671 0.14710191 0.60100001 4284306270
0.0051428573 0.14685716 0.60000002 4284569442
0.0062857145 0.14685716 0.60000002 4284830564
0.0074409526 0.14710191 0.60100001 4285094503
0.0085714282 0.14685716 0.60000002 4285423717
0.0097142868 0.14685716 0.60000002 4285818723
0.010857143 0.14685716 0.60000002 4286213214
-0.077333331 0.13813333 0.56 4284547443
-0.076266669 0.13813333 0.56 4283826491
-0.075199999 0.13813333 0.56 4283105582
-0.074265718 0.13838001 0.56100005 4281991458
-0.073197149 0.13838001 0.56100005 4280877350
-0.072128579 0.13838001 0.56100005 4280816427
-0.066068575 0.13912 0.56400001 4282529617
-0.06499429 0.13912 0.56400001 4282660932
-0.063920006 0.13912 0.56400001 4282857272
-0.062957145 0.13936667 0.565 4283119425
-0.06188095 0.13936667 0.565 4283054410
-0.060697146 0.13912 0.56400001 4282924361
-0.059622858 0.13912 0.56400001 4283186504
-0.058652379 0.13936667 0.565 4283383371
-0.0576781 0.13961335 0.56600004 4283383374
-0.056700002 0.13986 0.56700003 4283448911
-0.055620003 0.13986 0.56700003 4283514704
-0.054540001 0.13986 0.56700003 4283646289
-0.053460002 0.13986 0.56700003 4283647059
-0.052380003 0.13986 0.56700003 4283712592
-0.05139048 0.14010666 0.56800002 4283712590
-0.050308574 0.14010666 0.56800002 4283712847
-0.049226668 0.14010666 0.56800002 4283647056
-0.048229523 0.14035334 0.56900001 4283581519
-0.047311429 0.14084667 0.57100004 4283647055
-0.046304762 0.14109334 0.57200003 4283712832
-0.045294289 0.14134 0.57300001 4283778610
-0.04420286 0.14134 0.57300001 4283844670
-0.043186668 0.14158666 0.574 4283910730
-0.042166673 0.14183335 0.57500005 4283976783
-0.041071434 0.14183335 0.57500005 4283976532
-0.039976191 0.14183335 0.57500005 4284042069
-0.038880955 0.14183335 0.57500005 4284041814
-0.037785716 0.14183335 0.57500005 4284107350
-0.036754288 0.14208001 0.57600003 4284173399
-0.035719048 0.14232667 0.57700002 4284239444
-0.034680001 0.14257333 0.57800001 4284305234
-0.033637147 0.14282002 0.57900006 4284371283
-0.03253429 0.14282002 0.57900006 4284305492
-0.031485714 0.14306667 0.58000004 4284239957
-0.030380953 0.14306667 0.58000004 4284174167
-0.029225716 0.14282002 0.57900006 4284108631
-0.028122859 0.14282002 0.57900006 4284108887
-0.027066668 0.14306667 0.58000004 4284043605
-0.026006667 0.14331333 0.58100003 4284108884
-0.024942858 0.14356001 0.58200002 4284239956
-0.023875238 0.14380667 0.583 4284239956
-0.022881905 0.14454667 0.58600003 4284239955
-0.021765715 0.14454667 0.58600003 4284240210
-0.020684762 0.14479333 0.58700001 4284306004
-0.019566666 0.14479333 0.58700001 4284437078
-0.018448571 0.14479333 0.58700001 4284568154
-0.01736 0.14504001 0.588 4284502110
-0.016240001 0.14504001 0.588 4284436311
-0.015171429 0.14553334 0.59000003 4284369745
-0.01404762 0.14553334 0.59000003 4284303451
-0.012945714 0.14578 0.59100002 4284304998
-0.01184 0.14602667 0.59200001 4284306785
-0.010712381 0.14602667 0.59200001 4284503133
-0.0096009532 0.14627334 0.59300005 4284700771
-0.0084714293 0.14627334 0.59300005 4284700009
0.0051428573 0.148 0.60000002 4285291121
0.0062857145 0.148 0.60000002 4285158518
0.0085714282 0.148 0.60000002 4285361526
0.0097142868 0.148 0.60000002 4286344817
0.010857143 0.148 0.60000002 4287328356
-0.07932476 0.13895144 0.55900002 4278387077
-0.078260005 0.13895144 0.55900002 4279370103
-0.077333331 0.1392 0.56 4280356185
-0.07613048 0.13895144 0.55900002 4281342524
-0.075199999 0.1392 0.56 4282328890
-0.074133337 0.1392 0.56 4282791225
-0.073066667 0.1392 0.56 4283250234
-0.071999997 0.1392 0.56 4283184956
-0.067142859 0.1401943 0.56400001 4283185993
-0.066068575 0.1401943 0.56400001 4282989134
-0.06499429 0.1401943 0.56400001 4282857799
-0.063920006 0.1401943 0.56400001 4283054400
-0.062957145 0.14044285 0.565 4283251269
-0.06188095 0.14044285 0.565 4283251787
-0.060697146 0.1401943 0.56400001 4283317578
-0.059622858 0.1401943 0.56400001 4283449161
-0.058652379 0.14044285 0.565 4283580235
-0.0576781 0.14069144 0.56600004 4283580238
-0.056700002 0.14094001 0.56700003 4283580239
-0.055620003 0.14094001 0.56700003 4283646032
-0.054540001 0.14094001 0.56700003 4283712078
-0.053460002 0.14094001 0.56700003 4283778381
-0.052380003 0.14094001 0.56700003 4283909709
-0.05139048 0.14118858 0.56800002 4283910221
-0.050308574 0.14118858 0.56800002 4283909966
-0.049226668 0.14118858 0.56800002 4283843151
-0.048144761 0.14118858 0.56800002 4283778128
-0.047228575 0.14168572 0.57000005 4283778642
-0.046223812 0.14193429 0.57100004 4283779146
-0.045294289 0.14243144 0.57300001 4283910979
-0.04420286 0.14243144 0.57300001 4284107594
-0.043186668 0.14267999 0.574 4284107858
-0.042093333 0.14267999 0.574 4284108116
-0.041071434 0.14292859 0.57500005 4284173910
-0.039976191 0.14292859 0.57500005 4284304983
-0.038813334 0.14267999 0.574 4284370520
-0.037785716 0.14292859 0.57500005 4284436058
-0.036754288 0.14317715 0.57600003 4284567388
-0.035657145 0.14317715 0.57600003 4284698201
-0.034680001 0.14367428 0.57800001 4284698711
-0.033579048 0.14367428 0.57800001 4284764503
-0.03253429 0.14392288 0.57900006 4284568407
-0.031431429 0.14392288 0.57900006 4284371544
-0.030380953 0.14417143 0.58000004 4284306009
-0.029225716 0.14392288 0.57900006 4284305753
-0.028122859 0.14392288 0.57900006 4284240217
-0.027020002 0.14392288 0.57900006 4284174681
-0.026006667 0.14442 0.58100003 4284240474
-0.024900001 0.14442 0.58100003 4284305753
-0.023875238 0.14491713 0.583 4284305497
-0.022764761 0.14491713 0.583 4284305752
-0.02169143 0.14516573 0.58400005 4284371542
-0.020579049 0.14516573 0.58400005 4284437081
-0.019466668 0.14516573 0.58400005 4284568411
-0.018417144 0.14566286 0.58600003 4284699229
-0.017389525 0.14640859 0.58900005 4284633440
-0.016322857 0.14690572 0.59100002 4284633950
-0.015222857 0.14715429 0.59200001 4284503645
-0.014095238 0.14715429 0.59200001 4284435036
-0.012967619 0.14715429 0.59200001 4284300892
-0.0119 0.14790002 0.59500003 4284242779
-0.010748573 0.14765143 0.59400004 4284502873
-0.0096171433 0.14765143 0.59400004 4284766051
-0.0084857149 0.14765143 0.59400004 4284832877
0.0085714282 0.14914286 0.60000002 4285343370
0.0097142868 0.14914286 0.60000002 4286860416
-0.079182863 0.13976572 0.55800003 4280756280
-0.078260005 0.14001618 0.55900002 4281151043
-0.077195235 0.14001618 0.55900002 4281611584
-0.07613048 0.14001618 0.55900002 4282201661
-0.075065717 0.14001618 0.55900002 4282791751
-0.074133337 0.14026666 0.56 4282923089
-0.073066667 0.14026666 0.56 4283054671
-0.071999997 0.14026666 0.56 4283120461
-0.071060002 0.14051716 0.56100005 4283252555
-0.069991432 0.14051716 0.56100005 4283121481
-0.068922862 0.14051716 0.56100005 4283055947
-0.067854293 0.14051716 0.56100005 4283186765
-0.067023806 0.14101809 0.56300002 4283382860
-0.065951429 0.14101809 0.56300002 4283251788
-0.064879045 0.14101809 0.56300002 4283186250
-0.063806668 0.14101809 0.56300002 4283317576
-0.062845714 0.14126857 0.56400001 4283448906
-0.06177143 0.14126857 0.56400001 4283449420
-0.060697146 0.14126857 0.56400001 4283515723
-0.059622858 0.14126857 0.56400001 4283581258
-0.058548573 0.14126857 0.56400001 4283712332
-0.057474285 0.14126857 0.56400001 4283712847
-0.056400001 0.14126857 0.56400001 4283778895
-0.055620003 0.14202 0.56700003 4283779152
-0.054540001 0.14202 0.56700003 4283844940
-0.053460002 0.14202 0.56700003 4283910216
-0.052380003 0.14202 0.56700003 4284042314
-0.05139048 0.14227048 0.56800002 4284041804
-0.050308574 0.14227048 0.56800002 4284107085
-0.049226668 0.14227048 0.56800002 4284042062
-0.048144761 0.14227048 0.56800002 4283977297
-0.047145717 0.14252095 0.56900001 4283977301
-0.046142861 0.14277144 0.57000005 4284042837
-0.045057148 0.14277144 0.57000005 4284173909
-0.044125713 0.14327239 0.57200003 4284370775
-0.043111429 0.14352286 0.57300001 4284370522
-0.042020001 0.14352286 0.57300001 4284436057
-0.040928572 0.14352286 0.57300001 4284436569
-0.039906666 0.14377333 0.574 4284437337
-0.038813334 0.14377333 0.574 4284502618
-0.037785716 0.14402382 0.57500005 4284567902
-0.036754288 0.14427429 0.57600003 4284698466
-0.035657145 0.14427429 0.57600003 4284829279
-0.034680001 0.14477524 0.57800001 4284896092
-0.033579048 0.14477524 0.57800001 4284962139
-0.03253429 0.14502572 0.57900006 4285093211
-0.031539999 0.14552668 0.58100003 4285224539
-0.030380953 0.1452762 0.58000004 4285420892
-0.029276192 0.1452762 0.58000004 4285551964
-0.028171429 0.1452762 0.58000004 4285617756
-0.027113335 0.14552668 0.58100003 4285683550
-0.026051428 0.14577715 0.58200002 4285748832
-0.024985714 0.14602761 0.583 4285814111
-0.023875238 0.14602761 0.583 4285748575
-0.022842858 0.14652859 0.58500004 4285748573
-0.02169143 0.1462781 0.58400005 4285748059
-0.020579049 0.1462781 0.58400005 4285813342
-0.019466668 0.1462781 0.58400005 4285880673
-0.018385714 0.14652859 0.58500004 4286013537
-0.017330477 0.14702952 0.58700001 4286211682
-0.016350476 0.1482819 0.59200001 4286475365
-0.015274287 0.14878286 0.59400004 4286605417
-0.014142858 0.14878286 0.59400004 4286801246
-0.013011429 0.14878286 0.59400004 4286669651
-0.0119 0.14903334 0.59500003 4286603860
-0.010766666 0.14903334 0.59500003 4286473046
-0.0096333344 0.14903334 0.59500003 4286408036
-0.0085000005 0.14903334 0.59500003 4285949554
-0.079182863 0.14082858 0.55800003 4283185217
-0.078120001 0.14082858 0.55800003 4282989125
-0.077057146 0.14082858 0.55800003 4282857797
-0.07613048 0.14108096 0.55900002 4283054149
-0.075065717 0.14108096 0.55900002 4283250763
-0.074000955 0.14108096 0.55900002 4283054418
-0.073066667 0.14133333 0.56 4282923601
-0.071999997 0.14133333 0.56 4283120720
-0.070933335 0.14133333 0.56 4283318094
-0.069866665 0.14133333 0.56 4283383628
-0.068922862 0.14158572 0.56100005 4283449165
-0.067975245 0.1418381 0.56200004 4283514958
-0.066904768 0.1418381 0.56200004 4283580237
-0.065834291 0.1418381 0.56200004 4283579981
-0.064763814 0.1418381 0.56200004 4283579980
-0.063806668 0.14209048 0.56300002 4283580234
-0.062734284 0.14209048 0.56300002 4283646284
-0.061661907 0.14209048 0.56300002 4283647054
-0.060589526 0.14209048 0.56300002 4283712590
-0.059517145 0.14209048 0.56300002 4283778382
-0.058444764 0.14209048 0.56300002 4283909711
-0.05737238 0.14209048 0.56300002 4283910224
-0.056299999 0.14209048 0.56300002 4283975759
-0.055620003 0.14310001 0.56700003 4283976015
-0.054636192 0.14335239 0.56800002 4284041292
-0.053460002 0.14310001 0.56700003 4284106826
-0.052472383 0.14335239 0.56800002 4284173131
-0.05139048 0.14335239 0.56800002 4284239437
-0.050308574 0.14335239 0.56800002 4284370512
-0.049226668 0.14335239 0.56800002 4284305236
-0.048229523 0.14360477 0.56900001 4284239704
-0.047145717 0.14360477 0.56900001 4284239707
-0.046142861 0.14385717 0.57000005 4284305244
-0.045215238 0.1443619 0.57200003 4284436317
-0.044125713 0.1443619 0.57200003 4284633183
-0.043111429 0.14461428 0.57300001 4284698976
-0.042020001 0.14461428 0.57300001 4284763485
-0.040928572 0.14461428 0.57300001 4284634202
-0.039906666 0.14486666 0.574 4284568666
-0.038813334 0.14486666 0.574 4284634457
-0.037785716 0.14511906 0.57500005 4284766298
-0.036754288 0.14537144 0.57600003 4284832602
-0.035595242 0.14511906 0.57500005 4284962911
-0.034560002 0.14537144 0.57600003 4285027941
-0.033520956 0.1456238 0.57700002 4285161064
-0.032478098 0.14587618 0.57800001 4285621868
-0.031539999 0.14663334 0.58100003 4286146922
-0.030380953 0.14638096 0.58000004 4286475625
-0.029276192 0.14638096 0.58000004 4286869097
-0.028171429 0.14638096 0.58000004 4287000682
-0.027066668 0.14638096 0.58000004 4287198058
-0.026096191 0.14713809 0.583 4287264362
-0.024985714 0.14713809 0.583 4287328873
-0.023916192 0.14739048 0.58400005 4287262313
-0.022842858 0.14764287 0.58500004 4287197036
-0.021728573 0.14764287 0.58500004 4287197295
-0.020614285 0.14764287 0.58500004 4287196015
-0.019500002 0.14764287 0.58500004 4287260528
-0.018417144 0.14789525 0.58600003 4287393650
-0.017330477 0.14814763 0.58700001 4287854453
-0.016405717 0.14991429 0.59400004 4288315258
-0.015274287 0.14991429 0.59400004 4288776064
-0.014142858 0.14991429 0.59400004 4289236342
-0.013011429 0.14991429 0.59400004 4289107051
-0.0119 0.15016666 0.59500003 4288974695
-0.010766666 0.15016666 0.59500003 4288514915
-0.0096495235 0.15041904 0.59600002 4288043620
-0.008514286 0.15041904 0.59600002 4287064677
-0.092500001 0.14112857 0.55500001 4284612962
-0.091442853 0.14112857 0.55500001 4283433285
-0.090385713 0.14112857 0.55500001 4281860393
-0.089328572 0.14112857 0.55500001 4280221985
-0.080101915 0.14163715 0.55700004 4282922829
-0.079182863 0.14189143 0.55800003 4283185994
-0.078120001 0.14189143 0.55800003 4283185480
-0.077057146 0.14189143 0.55800003 4283121738
-0.07599429 0.14189143 0.55800003 4283317837
-0.075065717 0.14214572 0.55900002 4283448400
-0.074000955 0.14214572 0.55900002 4283383123
-0.073066667 0.1424 0.56 4283317843
-0.071999997 0.1424 0.56 4283449171
-0.070933335 0.1424 0.56 4283580497
-0.069991432 0.1426543 0.56100005 4283581008
-0.068922862 0.1426543 0.56100005 4283647311
-0.067854293 0.1426543 0.56100005 4283712847
-0.066904768 0.14290859 0.56200004 4283778639
-0.065834291 0.14290859 0.56200004 4283778895
-0.064879045 0.14316286 0.56300002 4283779150
-0.063806668 0.14316286 0.56300002 4283844429
-0.062734284 0.14316286 0.56300002 4283844431
-0.06177143 0.14341713 0.56400001 4283909969
-0.060697146 0.14341713 0.56400001 4283910993
-0.059517145 0.14316286 0.56300002 4283976274
-0.058444764 0.14316286 0.56300002 4284041809
-0.05737238 0.14316286 0.56300002 4284173137
-0.056299999 0.14316286 0.56300002 4284370256
-0.055620003 0.14418 0.56700003 4284239439
-0.054540001 0.14418 0.56700003 4284174413
-0.053554289 0.14443429 0.56800002 4284240460
-0.052472383 0.14443429 0.56800002 4284306509
-0.05139048 0.14443429 0.56800002 4284372046
-0.050308574 0.14443429 0.56800002 4284437844
-0.049313333 0.14468858 0.56900001 4284437339
-0.048314288 0.14494288 0.57000005 4284437086
-0.047228575 0.14494288 0.57000005 4284437090
-0.046223812 0.14519715 0.57100004 4284502884
-0.045136191 0.14519715 0.57100004 4284634214
-0.044125713 0.14545144 0.57200003 4284831334
-0.043036193 0.14545144 0.57200003 4284896359
-0.041946668 0.14545144 0.57200003 4284960097
-0.040928572 0.14570571 0.57300001 4285157980
-0.039906666 0.14595999 0.574 4285355866
-0.038813334 0.14595999 0.574 4285619545
-0.037719999 0.14595999 0.574 4285948758
-0.036690477 0.14621429 0.57500005 4286211155
-0.035595242 0.14621429 0.57500005 4286539360
-0.034500003 0.14621429 0.57500005 4286737006
-0.03346286 0.14646858 0.57600003 4287000438
-0.032365713 0.14646858 0.57600003 4287395454
-0.031757142 0.14875714 0.58500004 4287790458
-0.03064286 0.14875714 0.58500004 4288053622
-0.029528571 0.14875714 0.58500004 4288316791
-0.028414289 0.14875714 0.58500004 4288449400
-0.0273 0.14875714 0.58500004 4288647798
-0.026140954 0.14850287 0.58400005 4288779637
-0.024985714 0.14824857 0.583 4288911732
-0.023875238 0.14824857 0.583 4288911219
-0.022842858 0.14875714 0.58500004 4288845179
-0.021802856 0.14926572 0.58700001 4288778883
-0.020649524 0.14901143 0.58600003 4288778113
-0.019533332 0.14901143 0.58600003 4288581760
-0.018417144 0.14901143 0.58600003 4288385412
-0.017389525 0.1497743 0.58900005 4287985288
-0.016378097 0.15079144 0.59300005 4287665552
-0.0153 0.1513 0.59500003 4287209624
-0.014166667 0.1513 0.59500003 4286753678
-0.013033333 0.1513 0.59500003 4286881156
-0.0119 0.1513 0.59500003 4286943098
-0.010766666 0.1513 0.59500003 4287917937
-0.096554287 0.14192952 0.55400002 4279763320
-0.095499046 0.14192952 0.55400002 4278321532
-0.094443806 0.14192952 0.55400002 4278321535
-0.09338858 0.14192952 0.55400002 4278387048
-0.092333339 0.14192952 0.55400002 4280025424
-0.091278099 0.14192952 0.55400002 4281734214
-0.090222858 0.14192952 0.55400002 4281935675
-0.089167625 0.14192952 0.55400002 4282134070
-0.088112384 0.14192952 0.55400002 4282660402
-0.087057143 0.14192952 0.55400002 4283184950
-0.086001903 0.14192952 0.55400002 4283185211
-0.080245718 0.14295429 0.55800003 4283119692
-0.079182863 0.14295429 0.55800003 4283250764
-0.078260005 0.14321047 0.55900002 4283316301
-0.077195235 0.14321047 0.55900002 4283449421
-0.076266669 0.14346667 0.56 4283580749
-0.075199999 0.14346667 0.56 4283711568
-0.074133337 0.14346667 0.56 4283711570
-0.073066667 0.14346667 0.56 4283777618
-0.072128579 0.14372286 0.56100005 4283778129
-0.071060002 0.14372286 0.56100005 4283843921
-0.069991432 0.14372286 0.56100005 4283844177
-0.068922862 0.14372286 0.56100005 4283910226
-0.067975245 0.14397906 0.56200004 4283976275
-0.066904768 0.14397906 0.56200004 4284041554
-0.065951429 0.14423524 0.56300002 4284041554
-0.064879045 0.14423524 0.56300002 4284041554
-0.063806668 0.14423524 0.56300002 4284041810
-0.062734284 0.14423524 0.56300002 4284107092
-0.06177143 0.14449143 0.56400001 4284106839
-0.060589526 0.14423524 0.56300002 4284172631
-0.059517145 0.14423524 0.56300002 4284173144
-0.058444764 0.14423524 0.56300002 4284238682
-0.05737238 0.14423524 0.56300002 4284501085
-0.056299999 0.14423524 0.56300002 4284763737
-0.055620003 0.14526001 0.56700003 4284567894
-0.054540001 0.14526001 0.56700003 4284371541
-0.053460002 0.14526001 0.56700003 4284437332
-0.052472383 0.1455162 0.56800002 4284503378
-0.051480953 0.14577238 0.56900001 4284504145
-0.050397143 0.14577238 0.56900001 4284569686
-0.049313333 0.14577238 0.56900001 4284569947
-0.048314288 0.14602859 0.57000005 4284634972
-0.047228575 0.14602859 0.57000005 4284699997
-0.046223812 0.14628477 0.57100004 4284766048
-0.045136191 0.14628477 0.57100004 4284897635
-0.044125713 0.14654095 0.57200003 4285028453
-0.043036193 0.14654095 0.57200003 4285093992
-0.041946668 0.14654095 0.57200003 4285226092
-0.040928572 0.14679715 0.57300001 4285686128
-0.039906666 0.14705333 0.574 4286146158
-0.038813334 0.14705333 0.574 4286606444
-0.037719999 0.14705333 0.574 4287131752
-0.036690477 0.14730954 0.57500005 4287591780
-0.035595242 0.14730954 0.57500005 4288118125
-0.034500003 0.14730954 0.57500005 4288513399
-0.033404768 0.14730954 0.57500005 4288906879
-0.032309525 0.14730954 0.57500005 4289169288
-0.031757142 0.14987144 0.58500004 4289496966
-0.03064286 0.14987144 0.58500004 4289628293
-0.029528571 0.14987144 0.58500004 4289826695
-0.028414289 0.14987144 0.58500004 4289959562
-0.0273 0.14987144 0.58500004 4290091917
-0.026185717 0.14987144 0.58500004 4290289809
-0.025071429 0.14987144 0.58500004 4290551442
-0.023957144 0.14987144 0.58500004 4290552723
-0.022842858 0.14987144 0.58500004 4290553229
-0.021802856 0.15038382 0.58700001 4290422919
-0.020684762 0.15038382 0.58700001 4290350454
-0.019566666 0.15038382 0.58700001 4289895270
-0.018479999 0.15064 0.588 4289431655
-0.017419048 0.15115239 0.59000003 4288181609
-0.098640002 0.1414362 0.54800004 4283957619
-0.097596198 0.1414362 0.54800004 4282908991
-0.096728571 0.14324285 0.55500001 4281336597
-0.09567143 0.14324285 0.55500001 4280747548
-0.094443806 0.14298476 0.55400002 4280622115
-0.09338858 0.14298476 0.55400002 4280496945
-0.092333339 0.14298476 0.55400002 4281480767
-0.091278099 0.14298476 0.55400002 4282464838
-0.090222858 0.14298476 0.55400002 4282661454
-0.089006677 0.14272667 0.55300003 4282858316
-0.087953337 0.14272667 0.55300003 4283120714
-0.086900003 0.14272667 0.55300003 4283383106
-0.08584667 0.14272667 0.55300003 4283448634
-0.080245718 0.14401715 0.55800003 4283448396
-0.079182863 0.14401715 0.55800003 4283512911
-0.078260005 0.14427523 0.55900002 4283710546
-0.077333331 0.14453332 0.56 4283842896
-0.076266669 0.14453332 0.56 4283908942
-0.075199999 0.14453332 0.56 4283974992
-0.074133337 0.14453332 0.56 4284041554
-0.073066667 0.14453332 0.56 4284108113
-0.071999997 0.14453332 0.56 4283977296
-0.070933335 0.14453332 0.56 4283912273
-0.069991432 0.14479144 0.56100005 4283977555
-0.068922862 0.14479144 0.56100005 4284108629
-0.067854293 0.14479144 0.56100005 4284239703
-0.066785723 0.14479144 0.56100005 4284436566
-0.065834291 0.14504954 0.56200004 4284305494
-0.064763814 0.14504954 0.56200004 4284239959
-0.063806668 0.14530763 0.56300002 4284304728
-0.062734284 0.14530763 0.56300002 4284369498
-0.06177143 0.14556572 0.56400001 4284370269
-0.060589526 0.14530763 0.56300002 4284436574
-0.059517145 0.14530763 0.56300002 4284501855
-0.058444764 0.14530763 0.56300002 4284567396
-0.05737238 0.14530763 0.56300002 4284764521
-0.055620003 0.14634001 0.56700003 4285158237
-0.054540001 0.14634001 0.56700003 4285289309
-0.053460002 0.14634001 0.56700003 4285355101
-0.052657146 0.14711431 0.57000005 4285421144
-0.051571433 0.14711431 0.57000005 4285487188
-0.050485719 0.14711431 0.57000005 4285618264
-0.049400005 0.14711431 0.57000005 4285815388
-0.04839905 0.14737239 0.57100004 4286014042
-0.047311429 0.14737239 0.57100004 4286210137
-0.046223812 0.14737239 0.57100004 4286406492
-0.045136191 0.14737239 0.57100004 4286604128
-0.044048574 0.14737239 0.57100004 4286802021
-0.043036193 0.14763048 0.57200003 4287065962
-0.041946668 0.14763048 0.57200003 4287329911
-0.040857144 0.14763048 0.57200003 4287724676
-0.039906666 0.14814666 0.574 4288184962
-0.038813334 0.14814666 0.574 4288514688
-0.037785716 0.14840478 0.57500005 4288779130
-0.036626667 0.14814666 0.574 4289173621
-0.035533335 0.14814666 0.574 4289568123
-0.034500003 0.14840478 0.57500005 4289699969
-0.033404768 0.14840478 0.57500005 4289831817
-0.032309525 0.14840478 0.57500005 4289897362
-0.031214288 0.14840478 0.57500005 4289962899
-0.03064286 0.15098572 0.58500004 4290028692
-0.029528571 0.15098572 0.58500004 4290094744
-0.028414289 0.15098572 0.58500004 4289964188
-0.0273 0.15098572 0.58500004 4289833636
-0.026185717 0.15098572 0.58500004 4289045421
-0.025071429 0.15098572 0.58500004 4288257200
-0.023957144 0.15098572 0.58500004 4287603635
-0.022842858 0.15098572 0.58500004 4286950303
-0.021765715 0.15124381 0.58600003 4286356363
-0.020684762 0.15150189 0.58700001 4285828203
-0.019666668 0.1522762 0.59000003 4287129932
-0.098640002 0.14248 0.54800004 4280880469
-0.098308578 0.14352001 0.55200005 4281801274
-0.097257152 0.14352001 0.55200005 4282721333
-0.096728571 0.1443 0.55500001 4282986032
-0.09567143 0.1443 0.55500001 4283249203
-0.094273336 0.14378001 0.55300003 4282922550
-0.093220003 0.14378001 0.55300003 4282595902
-0.092166677 0.14378001 0.55300003 4282924615
-0.091113336 0.14378001 0.55300003 4283252298
-0.090060003 0.14378001 0.55300003 4283383630
-0.089006677 0.14378001 0.55300003 4283579981
-0.087794289 0.14352001 0.55200005 4283579979
-0.086585715 0.14326 0.551 4283645510
-0.085536189 0.14326 0.551 4283711298
-0.082076199 0.14456001 0.55600005 4283843661
-0.081162862 0.14482 0.55700004 4283843663
-0.080245718 0.14508002 0.55800003 4283843921
-0.07932476 0.14534001 0.55900002 4283844176
-0.078260005 0.14534001 0.55900002 4284041040
-0.077333331 0.14560001 0.56 4284303184
-0.076402865 0.14586002 0.56100005 4284237649
-0.075334288 0.14586002 0.56100005 4284238419
-0.074133337 0.14560001 0.56 4284304725
-0.073197149 0.14586002 0.56100005 4284436055
-0.072128579 0.14586002 0.56100005 4284174681
-0.070933335 0.14560001 0.56 4283977818
-0.069991432 0.14586002 0.56100005 4284108891
-0.068922862 0.14586002 0.56100005 4284305245
-0.067854293 0.14586002 0.56100005 4284567391
-0.066904768 0.14612001 0.56200004 4284895066
-0.065834291 0.14612001 0.56200004 4284633173
-0.064763814 0.14612001 0.56200004 4284436565
-0.063806668 0.14638001 0.56300002 4284567637
-0.062734284 0.14638001 0.56300002 4284698710
-0.061661907 0.14638001 0.56300002 4284698966
-0.060697146 0.14664 0.56400001 4284700250
-0.059517145 0.14638001 0.56300002 4284832605
-0.058444764 0.14638001 0.56300002 4284964963
-0.05737238 0.14638001 0.56300002 4285097576
-0.052657146 0.14820002 0.57000005 4286342498
-0.051571433 0.14820002 0.57000005 4286470750
-0.050574288 0.14846002 0.57100004 4286667614
-0.049486667 0.14846002 0.57100004 4286995550
-0.04839905 0.14846002 0.57100004 4287391591
-0.047311429 0.14846002 0.57100004 4287722351
-0.046223812 0.14846002 0.57100004 4288052085
-0.045136191 0.14846002 0.57100004 4288316538
-0.044048574 0.14846002 0.57100004 4288579454
-0.042960957 0.14846002 0.57100004 4288973697
-0.041873336 0.14846002 0.57100004 4289432969
-0.040857144 0.14872001 0.57200003 4289826961
-0.039976191 0.1495 0.57500005 4290285201
-0.038880955 0.1495 0.57500005 4290350480
-0.037785716 0.1495 0.57500005 4290485648
-0.036626667 0.14923999 0.574 4290749327
-0.035533335 0.14923999 0.574 4291011989
-0.034500003 0.1495 0.57500005 4290881691
-0.033404768 0.1495 0.57500005 4290814875
-0.032253332 0.14923999 0.574 4290619803
-0.031159999 0.14923999 0.574 4290488982
-0.03064286 0.15210001 0.58500004 4290423953
-0.029528571 0.15210001 0.58500004 4290357638
-0.028414289 0.15210001 0.58500004 4289963899
-0.0273 0.15210001 0.58500004 4289564536
-0.026230477 0.15236001 0.58600003 4287789173
-0.025157144 0.15262 0.58700001 4286007666
-0.023957144 0.15210001 0.58500004 4284684911
-0.022842858 0.15210001 0.58500004 4283370888
-0.021765715 0.15236001 0.58600003 4282319264
