# .PCD v0.7 - Point Cloud Data file format
VERSION 0.7
FIELDS x y z rgba
SIZE 4 4 4 4
TYPE F F F U
COUNT 1 1 1 1
WIDTH 1047
HEIGHT 1
VIEWPOINT 0 0 0 1 0 0 0
POINTS 1047
DATA ascii
0.026816191 0.077549525 0.76100004 4281151035
0.028265715 0.077549525 0.76100004 4281282364
0.029793333 0.077753328 0.76300001 4281479229
0.031246668 0.077753328 0.76300001 4281676086
0.032699998 0.077753328 0.76300001 4281611055
0.034153335 0.077753328 0.76300001 4281611571
0.035606667 0.077753328 0.76300001 4281545015
0.03706 0.077753328 0.76300001 4281543987
0.038614288 0.077957146 0.76500005 4281610287
0.040071428 0.077957146 0.76500005 4281676600
0.041528575 0.077957146 0.76500005 4281676610
0.042985715 0.077957146 0.76500005 4281611079
0.044442859 0.077957146 0.76500005 4281610572
0.046020001 0.078160949 0.76700002 4281610302
0.047480952 0.078160949 0.76700002 4281479472
0.049005713 0.078262858 0.76800001 4281414203
0.050468571 0.078262858 0.76800001 4281546055
0.05193143 0.078262858 0.76800001 4281677893
0.053533334 0.078466676 0.77000004 4281808708
0.055000003 0.078466676 0.77000004 4282005306
0.056613334 0.078670479 0.77200001 4281808433
0.057933334 0.078466676 0.77000004 4281611832
0.059400003 0.078466676 0.77000004 4281743167
0.060866669 0.078466676 0.77000004 4281808960
0.062333338 0.078466676 0.77000004 4281677633
0.063965715 0.078670479 0.77200001 4281546558
0.065436192 0.078670479 0.77200001 4281677371
0.066993333 0.078772388 0.77300006 4281808194
0.069085717 0.079485722 0.78000003 4281808457
0.07057143 0.079485722 0.78000003 4281808711
0.072057143 0.079485722 0.78000003 4281743173
0.073542856 0.079485722 0.78000003 4281677879
0.075028576 0.079485722 0.78000003 4281940009
0.076710477 0.079689525 0.78200006 4282136625
0.078200005 0.079689525 0.78200006 4282070842
0.079689525 0.079689525 0.78200006 4281939515
0.081179053 0.079689525 0.78200006 4281807932
0.08266858 0.079689525 0.78200006 4281676605
0.0841581 0.079689525 0.78200006 4281873214
0.085647628 0.079689525 0.78200006 4282070064
0.087137155 0.079689525 0.78200006 4282069795
0.088626675 0.079689525 0.78200006 4282069555
0.090346672 0.079893336 0.78400004 4281873219
0.091840006 0.079893336 0.78400004 4281742391
0.093333341 0.079893336 0.78400004 4281873452
0.094826676 0.079893336 0.78400004 4282070067
0.096811436 0.080300957 0.78800005 4282070330
0.098312385 0.080300957 0.78800005 4282136374
0.099940002 0.080402859 0.78900003 4282004018
0.1017 0.080606669 0.79100001 4281871918
0.10294572 0.080402859 0.78900003 4282003243
0.10471333 0.080606669 0.79100001 4282134835
0.10622 0.080606669 0.79100001 4282134844
0.10772666 0.080606669 0.79100001 4282134836
0.10923333 0.080606669 0.79100001 4282068525
0.11074 0.080606669 0.79100001 4282068020
0.11253048 0.08081048 0.79300004 4282264636
0.11404096 0.08081048 0.79300004 4282527039
0.11555143 0.08081048 0.79300004 4282527043
0.11735715 0.08101429 0.79500002 4282527290
0.11917048 0.081218101 0.79700005 4282397234
0.12068858 0.081218101 0.79700005 4282267437
0.1219 0.08101429 0.79500002 4281544745
0.12341429 0.08101429 0.79500002 4280813904
-0.024733335 0.077026673 0.74200004 4287990423
-0.023320002 0.077026673 0.74200004 4285363565
-0.021936191 0.077130474 0.74300003 4281794883
-0.020520953 0.077130474 0.74300003 4278324044
-0.019105716 0.077130474 0.74300003 4279375189
-0.017738096 0.077338107 0.74500006 4280490825
-0.016362859 0.077545717 0.74700004 4280820029
-0.01496 0.077649526 0.74800003 4281214266
-0.013535239 0.077649526 0.74800003 4281870902
-0.012142858 0.077857152 0.75000006 4282592560
-0.010714287 0.077857152 0.75000006 4282069289
-0.0092857154 0.077857152 0.75000006 4281545521
-0.0078571439 0.077857152 0.75000006 4282004793
-0.0064285719 0.077857152 0.75000006 4282462773
-0.0050000004 0.077857152 0.75000006 4282330929
-0.0035809525 0.078064762 0.75200003 4282200114
-0.0021485714 0.078064762 0.75200003 4282397234
-0.00071619049 0.078064762 0.75200003 4282593838
0.00071619049 0.078064762 0.75200003 4282528299
0.0021428573 0.077857152 0.75000006 4282462510
0.0035714288 0.077857152 0.75000006 4282527794
0.0050000004 0.077857152 0.75000006 4282593586
0.0064285719 0.077857152 0.75000006 4282528562
0.0078780958 0.078064762 0.75200003 4282463026
0.0093228575 0.078168571 0.75300002 4282463282
0.010785715 0.078376196 0.75500005 4282463542
0.012240001 0.078480005 0.75600004 4282136122
0.01368 0.078480005 0.75600004 4281873722
0.01516 0.078687623 0.75800002 4282266938
0.016559999 0.078480005 0.75600004 4282659640
0.018000001 0.078480005 0.75600004 4282528310
0.019491429 0.078687623 0.75800002 4282397240
0.020935237 0.078687623 0.75800002 4282331707
0.022379048 0.078687623 0.75800002 4282331702
0.023822857 0.078687623 0.75800002 4282135089
0.025266668 0.078687623 0.75800002 4282004023
0.026816191 0.07899905 0.76100004 4282069822
0.028265715 0.07899905 0.76100004 4282135615
0.029793333 0.079206668 0.76300001 4282266945
0.031246668 0.079206668 0.76300001 4282463548
0.032699998 0.079206668 0.76300001 4282266934
0.034153335 0.079206668 0.76300001 4282135865
0.035606667 0.079206668 0.76300001 4282200892
0.037157144 0.079414286 0.76500005 4282266170
0.038614288 0.079414286 0.76500005 4282331705
0.040071428 0.079414286 0.76500005 4282463037
0.041528575 0.079414286 0.76500005 4282332481
0.043098096 0.079621911 0.76700002 4282200901
0.04455905 0.079621911 0.76700002 4282266185
0.046079997 0.079725713 0.76800001 4282331713
0.047542859 0.079725713 0.76800001 4282069817
0.049005713 0.079725713 0.76800001 4281808449
0.050468571 0.079725713 0.76800001 4281874760
0.05193143 0.079725713 0.76800001 4282005573
0.053533334 0.079933338 0.77000004 4282136386
0.055142857 0.080140956 0.77200001 4282267453
0.056613334 0.080140956 0.77200001 4282070585
0.057933334 0.079933338 0.77000004 4281874235
0.059400003 0.079933338 0.77000004 4282006077
0.060866669 0.079933338 0.77000004 4282136891
0.062333338 0.079933338 0.77000004 4281938746
0.063965715 0.080140956 0.77200001 4281742395
0.065436192 0.080140956 0.77200001 4282070332
0.066993333 0.080244765 0.77300006 4282398274
0.06882 0.08066 0.77700001 4282333256
0.07057143 0.080971435 0.78000003 4282333252
0.072057143 0.080971435 0.78000003 4282267968
0.073542856 0.080971435 0.78000003 4282267447
0.075028576 0.080971435 0.78000003 4282398255
0.076514289 0.080971435 0.78000003 4282529589
0.078200005 0.081179053 0.78200006 4282464314
0.079689525 0.081179053 0.78200006 4282398266
0.081179053 0.081179053 0.78200006 4282266682
0.08266858 0.081179053 0.78200006 4282201405
0.0841581 0.081179053 0.78200006 4282463809
0.085647628 0.081179053 0.78200006 4282725434
0.087360002 0.08138667 0.78400004 4282659635
0.088853337 0.08138667 0.78400004 4282659899
0.090346672 0.08138667 0.78400004 4282398274
0.092074282 0.081594288 0.78600001 4282201916
0.093571424 0.081594288 0.78600001 4282529845
0.095310479 0.081801906 0.78800005 4282923578
0.096811436 0.081801906 0.78800005 4282858559
0.098437145 0.081905723 0.78900003 4282858299
0.099940002 0.081905723 0.78900003 4282661688
0.1017 0.082113333 0.79100001 4282530103
0.10320667 0.082113333 0.79100001 4282791734
0.10471333 0.082113333 0.79100001 4283054396
0.10622 0.082113333 0.79100001 4282989379
0.10772666 0.082113333 0.79100001 4282989117
0.10950953 0.082320958 0.79300004 4282792248
0.11102001 0.082320958 0.79300004 4282595388
0.11253048 0.082320958 0.79300004 4282988352
0.11404096 0.082320958 0.79300004 4283448132
0.11584286 0.082528569 0.79500002 4283383625
0.11765239 0.082736202 0.79700005 4283318595
0.11917048 0.082736202 0.79700005 4283122748
0.12068858 0.082736202 0.79700005 4282989874
0.12220667 0.082736202 0.79700005 4282069545
0.12372477 0.082736202 0.79700005 4281207125
-0.024733335 0.078440003 0.74200004 4288384904
-0.023351429 0.078545719 0.74300003 4285812040
-0.021936191 0.078545719 0.74300003 4282581257
-0.020520953 0.078545719 0.74300003 4279437598
-0.019105716 0.078545719 0.74300003 4280361011
-0.017738096 0.078757152 0.74500006 4281281581
-0.016362859 0.078968577 0.74700004 4281478951
-0.014940001 0.078968577 0.74700004 4281741874
-0.013535239 0.079074286 0.74800003 4282200637
-0.012142858 0.079285719 0.75000006 4282594105
-0.010714287 0.079285719 0.75000006 4282331445
-0.0092857154 0.079285719 0.75000006 4282070335
-0.0078571439 0.079285719 0.75000006 4282397770
-0.0064285719 0.079285719 0.75000006 4282725445
-0.0050000004 0.079285719 0.75000006 4282528576
-0.0035714288 0.079285719 0.75000006 4282397502
-0.0021428573 0.079285719 0.75000006 4282528572
-0.00071619049 0.079497144 0.75200003 4282660148
0.00071619049 0.079497144 0.75200003 4282463277
0.0021485714 0.079497144 0.75200003 4282266421
0.0035809525 0.079497144 0.75200003 4282397502
0.00502 0.07960286 0.75300002 4282528572
0.006471429 0.079814292 0.75500005 4282528570
0.0079095243 0.079814292 0.75500005 4282594105
0.0093476195 0.079814292 0.75500005 4282659641
0.010785715 0.079814292 0.75500005 4282725182
0.012240001 0.079920009 0.75600004 4282463299
0.013716191 0.080131426 0.75800002 4282201410
0.01516 0.080131426 0.75800002 4282332482
0.016559999 0.079920009 0.75600004 4282529089
0.01804762 0.080131426 0.75800002 4282331969
0.019491429 0.080131426 0.75800002 4282200385
0.020935237 0.080131426 0.75800002 4282331713
0.022379048 0.080131426 0.75800002 4282528313
0.023822857 0.080131426 0.75800002 4282266161
0.025266668 0.080131426 0.75800002 4282069561
0.026780955 0.080342866 0.76000005 4282200641
0.028265715 0.080448568 0.76100004 4282332995
0.029793333 0.08066 0.76300001 4282463558
0.031164765 0.080448568 0.76100004 4282594626
0.032699998 0.08066 0.76300001 4282398014
0.034153335 0.08066 0.76300001 4282201663
0.035700001 0.080871433 0.76500005 4282331713
0.037157144 0.080871433 0.76500005 4282463298
0.038614288 0.080871433 0.76500005 4282594115
0.040071428 0.080871433 0.76500005 4282725186
0.041637145 0.081082858 0.76700002 4282528833
0.043098096 0.081082858 0.76700002 4282333763
0.04455905 0.081082858 0.76700002 4282399046
0.046079997 0.081188574 0.76800001 4282464324
0.047542859 0.081188574 0.76800001 4282399043
0.049133338 0.0814 0.77000004 4282399558
0.0506 0.0814 0.77000004 4282268234
0.052066669 0.0814 0.77000004 4282202437
0.053533334 0.0814 0.77000004 4282332993
0.055000003 0.0814 0.77000004 4282529601
0.056613334 0.081611432 0.77200001 4282529857
0.057933334 0.0814 0.77000004 4282530110
0.059400003 0.0814 0.77000004 4282464828
0.060866669 0.0814 0.77000004 4282334007
0.062495239 0.081611432 0.77200001 4282267187
0.063965715 0.081611432 0.77200001 4282137144
0.065520957 0.081717148 0.77300006 4282464318
0.066993333 0.081717148 0.77300006 4282857283
0.068997145 0.082351431 0.77900004 4282726216
0.07057143 0.08245714 0.78000003 4282595905
0.072057143 0.08245714 0.78000003 4282465083
0.073542856 0.08245714 0.78000003 4282334264
0.075028576 0.08245714 0.78000003 4282596406
0.076514289 0.08245714 0.78000003 4282858808
0.078000002 0.08245714 0.78000003 4282793019
0.079689525 0.08266858 0.78200006 4282661945
0.081179053 0.08266858 0.78200006 4282530616
0.08266858 0.08266858 0.78200006 4282464830
0.0841581 0.08266858 0.78200006 4282726980
0.085647628 0.08266858 0.78200006 4282989380
0.087360002 0.082879998 0.78400004 4282989124
0.088853337 0.082879998 0.78400004 4282923587
0.090346672 0.082879998 0.78400004 4282595906
0.092074282 0.08309143 0.78600001 4282203712
0.093571424 0.08309143 0.78600001 4282662463
0.095068567 0.08309143 0.78600001 4283187009
0.096565716 0.08309143 0.78600001 4283187012
0.098312385 0.083302855 0.78800005 4283187265
0.099940002 0.083408572 0.78900003 4282793790
0.10144287 0.083408572 0.78900003 4282465855
0.10294572 0.083408572 0.78900003 4282924609
0.10471333 0.083620004 0.79100001 4283383621
0.10622 0.083620004 0.79100001 4283383114
0.10772666 0.083620004 0.79100001 4283317319
0.10923333 0.083620004 0.79100001 4283121220
0.11102001 0.083831429 0.79300004 4282925380
0.11253048 0.083831429 0.79300004 4283450692
0.11404096 0.083831429 0.79300004 4283976010
0.11555143 0.083831429 0.79300004 4283778896
0.11765239 0.084254287 0.79700005 4283582027
0.11917048 0.084254287 0.79700005 4283384903
0.12068858 0.084254287 0.79700005 4283188024
0.12220667 0.084254287 0.79700005 4282069033
0.12372477 0.084254287 0.79700005 4281010523
0.12524286 0.084254287 0.79700005 4285162381
-0.024766667 0.07996095 0.74300003 4288779656
-0.023414288 0.080176197 0.74500006 4286269766
-0.021995239 0.080176197 0.74500006 4283433221
-0.020520953 0.07996095 0.74300003 4280619037
-0.019105716 0.07996095 0.74300003 4281347125
-0.017690476 0.07996095 0.74300003 4282068787
-0.016362859 0.080391429 0.74700004 4282200625
-0.01496 0.080499046 0.74800003 4282332213
-0.013535239 0.080499046 0.74800003 4282464058
-0.012142858 0.080714293 0.75000006 4282660154
-0.010714287 0.080714293 0.75000006 4282659386
-0.0092857154 0.080714293 0.75000006 4282659908
-0.0078571439 0.080714293 0.75000006 4282791759
-0.0064285719 0.080714293 0.75000006 4282988104
-0.0050000004 0.080714293 0.75000006 4282791232
-0.0035809525 0.080929525 0.75200003 4282594366
-0.0021428573 0.080714293 0.75000006 4282659901
-0.00071619049 0.080929525 0.75200003 4282790971
0.00071619049 0.080929525 0.75200003 4282463546
0.0021485714 0.080929525 0.75200003 4282136123
0.0035809525 0.080929525 0.75200003 4282332989
0.00502 0.081037149 0.75300002 4282529341
0.006471429 0.081252381 0.75500005 4282594622
0.0079095243 0.081252381 0.75500005 4282725948
0.0093476195 0.081252381 0.75500005 4282857530
0.010785715 0.081252381 0.75500005 4283053117
0.012240001 0.081359997 0.75600004 4282790208
0.01368 0.081359997 0.75600004 4282593855
0.015120002 0.081359997 0.75600004 4282463038
0.016559999 0.081359997 0.75600004 4282397759
0.018000001 0.081359997 0.75600004 4282201409
0.019491429 0.081575237 0.75800002 4282004545
0.020935237 0.081575237 0.75800002 4282331970
0.022379048 0.081575237 0.75800002 4282724923
0.023822857 0.081575237 0.75800002 4282462005
0.025266668 0.081575237 0.75800002 4282200379
0.026780955 0.081790477 0.76000005 4282331457
0.028228572 0.081790477 0.76000005 4282529092
0.02971524 0.081898101 0.76100004 4282660167
0.031164765 0.081898101 0.76100004 4282790980
0.032614287 0.081898101 0.76100004 4282528578
0.034153335 0.082113333 0.76300001 4282266689
0.035606667 0.082113333 0.76300001 4282462785
0.037157144 0.08232858 0.76500005 4282659907
0.038614288 0.08232858 0.76500005 4282857285
0.040071428 0.08232858 0.76500005 4283053378
0.041637145 0.082543813 0.76700002 4282790719
0.043098096 0.082543813 0.76700002 4282530881
0.04455905 0.082543813 0.76700002 4282595396
0.046079997 0.082651429 0.76800001 4282660932
0.047542859 0.082651429 0.76800001 4282792005
0.049005713 0.082651429 0.76800001 4282987847
0.050468571 0.082651429 0.76800001 4282659656
0.052066669 0.082866669 0.77000004 4282398022
0.053533334 0.082866669 0.77000004 4282595140
0.055000003 0.082866669 0.77000004 4282791746
0.056613334 0.083081901 0.77200001 4282989119
0.05808381 0.083081901 0.77200001 4283250749
0.059400003 0.082866669 0.77000004 4282922811
0.061024766 0.083081901 0.77200001 4282594350
0.062495239 0.083081901 0.77200001 4282593824
0.063965715 0.083081901 0.77200001 4282594863
0.065520957 0.083189532 0.77300006 4282923838
0.066993333 0.083189532 0.77300006 4283316544
0.06882 0.083620004 0.77700001 4283053891
0.070480958 0.083835244 0.77900004 4282857025
0.071964763 0.083835244 0.77900004 4282660415
0.073448576 0.083835244 0.77900004 4282464573
0.074932382 0.083835244 0.77900004 4282858811
0.076514289 0.08394286 0.78000003 4283252028
0.078000002 0.08394286 0.78000003 4283121212
0.079485722 0.08394286 0.78000003 4282990132
0.080971435 0.08394286 0.78000003 4282857516
0.08245714 0.08394286 0.78000003 4282726969
0.0841581 0.0841581 0.78200006 4282989638
0.085647628 0.0841581 0.78200006 4283318344
0.087137155 0.0841581 0.78200006 4283253835
0.088853337 0.084373333 0.78400004 4283252298
0.090346672 0.084373333 0.78400004 4282726985
0.092074282 0.084588572 0.78600001 4282269768
0.093571424 0.084588572 0.78600001 4282861126
0.095068567 0.084588572 0.78600001 4283451720
0.096565716 0.084588572 0.78600001 4283518026
0.098437145 0.084911436 0.78900003 4283582024
0.099940002 0.084911436 0.78900003 4282987846
0.10144287 0.084911436 0.78900003 4282400837
0.10294572 0.084911436 0.78900003 4283057220
0.10471333 0.085126668 0.79100001 4283778884
0.10622 0.085126668 0.79100001 4283717188
0.10772666 0.085126668 0.79100001 4283712583
0.10923333 0.085126668 0.79100001 4283515210
0.11074 0.085126668 0.79100001 4283318858
0.11253048 0.085341908 0.79300004 4283911241
0.11404096 0.085341908 0.79300004 4284567123
0.11584286 0.08555714 0.79500002 4284239964
0.11765239 0.085772388 0.79700005 4283909715
0.11917048 0.085772388 0.79700005 4283647049
0.12068858 0.085772388 0.79700005 4283383354
0.12236001 0.085880004 0.79800004 4282134314
0.12388001 0.085880004 0.79800004 4280879706
0.12540001 0.085880004 0.79800004 4285492362
0.12692 0.085880004 0.79800004 4290099615
0.12843999 0.085880004 0.79800004 4290555573
-0.024766667 0.081376195 0.74300003 4288911241
-0.023414288 0.081595249 0.74500006 4286334533
-0.021936191 0.081376195 0.74300003 4283564289
-0.020520953 0.081376195 0.74300003 4280817436
-0.019105716 0.081376195 0.74300003 4281412663
-0.017690476 0.081376195 0.74300003 4282069561
-0.01631905 0.081595249 0.74500006 4282266171
-0.014940001 0.081814289 0.74700004 4282464057
-0.013535239 0.081923813 0.74800003 4282660664
-0.012110476 0.081923813 0.74800003 4282857275
-0.010714287 0.082142867 0.75000006 4282988863
-0.0092857154 0.082142867 0.75000006 4283186250
-0.0078780958 0.082361907 0.75200003 4283317333
-0.0064285719 0.082142867 0.75000006 4283513931
-0.0050133336 0.082361907 0.75200003 4283185217
-0.0035809525 0.082361907 0.75200003 4282856767
-0.0021485714 0.082361907 0.75200003 4282922046
-0.00071619049 0.082361907 0.75200003 4282988611
0.00071714289 0.08247143 0.75300002 4283054664
0.0021485714 0.082361907 0.75200003 4283186242
0.0035809525 0.082361907 0.75200003 4282988348
0.00502 0.08247143 0.75300002 4282726975
0.006471429 0.082690477 0.75500005 4282726979
0.0079095243 0.082690477 0.75500005 4282726975
0.0093476195 0.082690477 0.75500005 4283120955
0.010785715 0.082690477 0.75500005 4283580476
0.012240001 0.082800001 0.75600004 4283251774
0.01368 0.082800001 0.75600004 4282923068
0.015120002 0.082800001 0.75600004 4282725691
0.016559999 0.082800001 0.75600004 4282595390
0.018000001 0.082800001 0.75600004 4282595393
0.019440001 0.082800001 0.75600004 4282660930
0.020935237 0.083019048 0.75800002 4282857283
0.022379048 0.083019048 0.75800002 4283119166
0.023822857 0.083019048 0.75800002 4282790714
0.025266668 0.083019048 0.75800002 4282528061
0.026780955 0.083238102 0.76000005 4282659393
0.028228572 0.083238102 0.76000005 4282790980
0.02971524 0.083347626 0.76100004 4282922568
0.031164765 0.083347626 0.76100004 4283119687
0.032699998 0.083566666 0.76300001 4282791239
0.034153335 0.083566666 0.76300001 4282529604
0.035700001 0.08378572 0.76500005 4282726465
0.037157144 0.08378572 0.76500005 4282989124
0.038614288 0.08378572 0.76500005 4283186247
0.040071428 0.08378572 0.76500005 4283383362
0.041637145 0.08400476 0.76700002 4283055678
0.043098096 0.08400476 0.76700002 4282793536
0.04455905 0.08400476 0.76700002 4282859074
0.046020001 0.08400476 0.76700002 4282990405
0.047542859 0.084114283 0.76800001 4283318344
0.049005713 0.084114283 0.76800001 4283646535
0.050468571 0.084114283 0.76800001 4283251271
0.052066669 0.084333338 0.77000004 4282856007
0.053533334 0.084333338 0.77000004 4282922568
0.055000003 0.084333338 0.77000004 4283054147
0.056613334 0.084552377 0.77200001 4283515198
0.05808381 0.084552377 0.77200001 4284041788
0.059554286 0.084552377 0.77200001 4283514171
0.061024766 0.084552377 0.77200001 4283052324
0.062495239 0.084552377 0.77200001 4282986510
0.063965715 0.084552377 0.77200001 4282920742
0.065520957 0.084661908 0.77300006 4283581502
0.066993333 0.084661908 0.77300006 4284238654
0.06882 0.085100003 0.77700001 4283777855
0.070480958 0.08531905 0.77900004 4283317313
0.071964763 0.08531905 0.77900004 4282791747
0.073448576 0.08531905 0.77900004 4282265922
0.074932382 0.08531905 0.77900004 4282794561
0.076416194 0.08531905 0.77900004 4283386431
0.077900007 0.08531905 0.77900004 4283319614
0.079485722 0.085428573 0.78000003 4283318319
0.080971435 0.085428573 0.78000003 4283120928
0.08245714 0.085428573 0.78000003 4282989364
0.0841581 0.085647628 0.78200006 4283252808
0.085647628 0.085647628 0.78200006 4283516749
0.087360002 0.085866667 0.78400004 4283581523
0.088853337 0.085866667 0.78400004 4283646546
0.090346672 0.085866667 0.78400004 4283187793
0.092074282 0.086085714 0.78600001 4282729295
0.093571424 0.086085714 0.78600001 4283057998
0.095068567 0.086085714 0.78600001 4283452751
0.096565716 0.086085714 0.78600001 4283649105
0.098312385 0.086304761 0.78800005 4283845712
0.099813342 0.086304761 0.78800005 4283249743
0.10144287 0.086414285 0.78900003 4282729291
0.10294572 0.086414285 0.78900003 4283189064
0.10471333 0.08663334 0.79100001 4283649859
0.10622 0.08663334 0.79100001 4283780415
0.10772666 0.08663334 0.79100001 4283911240
0.10923333 0.08663334 0.79100001 4283581265
0.11102001 0.086852387 0.79300004 4283253584
0.11253048 0.086852387 0.79300004 4283714127
0.11404096 0.086852387 0.79300004 4284108636
0.11584286 0.087071434 0.79500002 4283977833
0.11765239 0.087290481 0.79700005 4283909978
0.11917048 0.087290481 0.79700005 4283515724
0.12068858 0.087290481 0.79700005 4283120188
0.12220667 0.087290481 0.79700005 4281934892
0.12372477 0.087290481 0.79700005 4280814681
0.12540001 0.087400004 0.79800004 4285758599
0.12692 0.087400004 0.79800004 4290691997
0.12843999 0.087400004 0.79800004 4290883507
0.12996 0.087400004 0.79800004 4291143340
-0.023414288 0.083014295 0.74500006 4286396994
-0.021936191 0.082791425 0.74300003 4283695621
-0.020520953 0.082791425 0.74300003 4281016095
-0.019105716 0.082791425 0.74300003 4281543994
-0.017690476 0.082791425 0.74300003 4282069307
-0.01631905 0.083014295 0.74500006 4282331964
-0.01496 0.08334858 0.74800003 4282595131
-0.013535239 0.08334858 0.74800003 4282856762
-0.012142858 0.083571434 0.75000006 4283119682
-0.010714287 0.083571434 0.75000006 4283382346
-0.0093104765 0.083794288 0.75200003 4283712597
-0.0078780958 0.083794288 0.75200003 4283850849
-0.0064457143 0.083794288 0.75200003 4284043604
-0.0050133336 0.083794288 0.75200003 4283581256
-0.0035809525 0.083794288 0.75200003 4283118908
-0.0021485714 0.083794288 0.75200003 4283118897
-0.00071619049 0.083794288 0.75200003 4283185979
0.00071714289 0.083905719 0.75300002 4283712325
0.0021485714 0.083794288 0.75200003 4284301377
0.0035809525 0.083794288 0.75200003 4283643965
0.00502 0.083905719 0.75300002 4282988354
0.006471429 0.084128574 0.75500005 4282857030
0.0079095243 0.084128574 0.75500005 4282727749
0.0093476195 0.084128574 0.75500005 4283449667
0.010785715 0.084128574 0.75500005 4284170817
0.012240001 0.084240004 0.75600004 4283712319
0.01368 0.084240004 0.75600004 4283252026
0.01516 0.084462859 0.75800002 4282987317
0.016559999 0.084240004 0.75600004 4282792251
0.01804762 0.084462859 0.75800002 4283055682
0.019440001 0.084240004 0.75600004 4283318597
0.020935237 0.084462859 0.75800002 4283450441
0.022379048 0.084462859 0.75800002 4283579718
0.023822857 0.084462859 0.75800002 4283184964
0.025266668 0.084462859 0.75800002 4282857285
0.026710477 0.084462859 0.75800002 4282922822
0.028154286 0.084462859 0.75800002 4283054921
0.029676192 0.084685721 0.76000005 4283252812
0.031164765 0.084797144 0.76100004 4283513417
0.032614287 0.084797144 0.76100004 4283118662
0.034153335 0.085020006 0.76300001 4282792008
0.035700001 0.08524286 0.76500005 4283055177
0.037157144 0.08524286 0.76500005 4283317838
0.038614288 0.08524286 0.76500005 4283515219
0.040071428 0.08524286 0.76500005 4283711819
0.041637145 0.085465722 0.76700002 4283384131
0.043098096 0.085465722 0.76700002 4283055940
0.04455905 0.085465722 0.76700002 4283185734
0.046020001 0.085465722 0.76700002 4283318342
0.047542859 0.085577145 0.76800001 4283843399
0.049005713 0.085577145 0.76800001 4284367684
0.050468571 0.085577145 0.76800001 4283843393
0.052066669 0.0858 0.77000004 4283317309
0.053533334 0.0858 0.77000004 4283315512
0.055142857 0.086022861 0.77200001 4283317824
0.056613334 0.086022861 0.77200001 4284042823
0.058159053 0.086134292 0.77300006 4284829513
0.059554286 0.086022861 0.77200001 4284174668
0.061024766 0.086022861 0.77200001 4283579963
0.062495239 0.086022861 0.77200001 4283443754
0.064048581 0.086134292 0.77300006 4283314996
0.065520957 0.086134292 0.77300006 4284239167
0.066993333 0.086134292 0.77300006 4285157182
0.068642862 0.086357147 0.77500004 4284502333
0.070480958 0.086802863 0.77900004 4283843650
0.071964763 0.086802863 0.77900004 4282988615
0.073448576 0.086802863 0.77900004 4282138439
0.074932382 0.086802863 0.77900004 4282795847
0.076416194 0.086802863 0.77900004 4283517511
0.077900007 0.086802863 0.77900004 4283584071
0.079485722 0.086914286 0.78000003 4283713598
0.080971435 0.086914286 0.78000003 4283445557
0.08245714 0.086914286 0.78000003 4283251521
0.0841581 0.087137155 0.78200006 4283450445
0.085647628 0.087137155 0.78200006 4283714134
0.087360002 0.087360002 0.78400004 4283849055
0.089080006 0.087582856 0.78600001 4284042062
0.090577148 0.087582856 0.78600001 4283580477
0.091840006 0.087360002 0.78400004 4283187781
0.093333341 0.087360002 0.78400004 4283320398
0.095068567 0.087582856 0.78600001 4283452238
0.096565716 0.087582856 0.78600001 4283780687
0.098437145 0.087917142 0.78900003 4284106574
0.099940002 0.087917142 0.78900003 4283577166
0.1017 0.088140003 0.79100001 4283121485
0.10320667 0.088140003 0.79100001 4283320908
0.10471333 0.088140003 0.79100001 4283584334
0.10622 0.088140003 0.79100001 4283847248
0.10772666 0.088140003 0.79100001 4284107855
0.10923333 0.088140003 0.79100001 4283647567
0.11102001 0.088362865 0.79300004 4283253582
0.11253048 0.088362865 0.79300004 4283451469
0.11404096 0.088362865 0.79300004 4283714389
0.11584286 0.088585712 0.79500002 4283781468
0.11765239 0.088808581 0.79700005 4283910485
0.11917048 0.088808581 0.79700005 4283384399
0.12068858 0.088808581 0.79700005 4282857026
0.12220667 0.088808581 0.79700005 4281801270
0.12372477 0.088808581 0.79700005 4280755556
0.12540001 0.088920005 0.79800004 4286025106
0.12692 0.088920005 0.79800004 4291348131
0.12843999 0.088920005 0.79800004 4291276980
0.12996 0.088920005 0.79800004 4291209390
-0.023414288 0.08443334 0.74500006 4286197311
-0.021995239 0.08443334 0.74500006 4283761417
-0.020520953 0.084206671 0.74300003 4281345827
-0.019105716 0.084206671 0.74300003 4281806909
-0.017690476 0.084206671 0.74300003 4282265917
-0.01631905 0.08443334 0.74500006 4282463294
-0.01496 0.084773332 0.74800003 4282660925
-0.013535239 0.084773332 0.74800003 4282858045
-0.012110476 0.084773332 0.74800003 4283120713
-0.010714287 0.085000008 0.75000006 4283448917
-0.0093104765 0.08522667 0.75200003 4283780449
-0.0078780958 0.08522667 0.75200003 4283915117
-0.0064457143 0.08522667 0.75200003 4284112222
-0.0050133336 0.08522667 0.75200003 4283646287
-0.0035809525 0.08522667 0.75200003 4283118906
-0.0021485714 0.08522667 0.75200003 4283184677
-0.00071714289 0.085340001 0.75300002 4283252532
0.00071714289 0.085340001 0.75300002 4283646531
0.0021485714 0.08522667 0.75200003 4284040513
0.0035809525 0.08522667 0.75200003 4283580991
0.00502 0.085340001 0.75300002 4283121476
0.006471429 0.085566677 0.75500005 4282791498
0.0079095243 0.085566677 0.75500005 4282466379
0.0093476195 0.085566677 0.75500005 4283187788
0.010785715 0.085566677 0.75500005 4283910982
0.012240001 0.08568 0.75600004 4283647809
0.01368 0.08568 0.75600004 4283384632
0.01516 0.085906669 0.75800002 4283183920
0.016603809 0.085906669 0.75800002 4282989369
0.01804762 0.085906669 0.75800002 4283187011
0.019491429 0.085906669 0.75800002 4283450441
0.020935237 0.085906669 0.75800002 4283647056
0.022379048 0.085906669 0.75800002 4283843663
0.023822857 0.085906669 0.75800002 4283381838
0.025266668 0.085906669 0.75800002 4282856269
0.026710477 0.085906669 0.75800002 4283054156
0.028154286 0.085906669 0.75800002 4283186766
0.029676192 0.086133331 0.76000005 4283385168
0.031164765 0.086246669 0.76100004 4283583051
0.032614287 0.086246669 0.76100004 4283054662
0.034153335 0.086473338 0.76300001 4282595916
0.035700001 0.0867 0.76500005 4282923602
0.037157144 0.0867 0.76500005 4283318872
0.038614288 0.0867 0.76500005 4283646047
0.040071428 0.0867 0.76500005 4284041555
0.041637145 0.086926669 0.76700002 4283581000
0.043098096 0.086926669 0.76700002 4283187273
0.04455905 0.086926669 0.76700002 4283318602
0.046079997 0.08704 0.76800001 4283449928
0.047666669 0.087266669 0.77000004 4283778887
0.049133338 0.087266669 0.77000004 4284173889
0.050468571 0.08704 0.76800001 4283779132
0.052066669 0.087266669 0.77000004 4283449650
0.053533334 0.087266669 0.77000004 4283384617
0.055142857 0.087493338 0.77200001 4283319613
0.056613334 0.087493338 0.77200001 4283845457
0.058159053 0.087606676 0.77300006 4284374359
0.059631433 0.087606676 0.77300006 4284043869
0.061024766 0.087493338 0.77200001 4283780177
0.06257619 0.087606676 0.77300006 4283515206
0.064048581 0.087606676 0.77300006 4283250499
0.06569048 0.087833337 0.77500004 4283909184
0.066993333 0.087606676 0.77300006 4284569150
0.068642862 0.087833337 0.77500004 4284174652
0.070480958 0.088286668 0.77900004 4283845699
0.071964763 0.088286668 0.77900004 4283251019
0.073448576 0.088286668 0.77900004 4282729548
0.074932382 0.088286668 0.77900004 4283189326
0.076416194 0.088286668 0.77900004 4283714383
0.077900007 0.088286668 0.77900004 4284042577
0.079485722 0.088400006 0.78000003 4284371022
0.080971435 0.088400006 0.78000003 4283839307
0.08245714 0.088400006 0.78000003 4283317326
0.0841581 0.088626675 0.78200006 4283516242
0.085647628 0.088626675 0.78200006 4283715166
0.087137155 0.088626675 0.78200006 4284043627
0.088853337 0.088853337 0.78400004 4284437578
0.090346672 0.088853337 0.78400004 4283645481
0.091840006 0.088853337 0.78400004 4282859836
0.093333341 0.088853337 0.78400004 4283189583
0.095068567 0.089080006 0.78600001 4283517518
0.096565716 0.089080006 0.78600001 4283714381
0.098062858 0.089080006 0.78600001 4283908941
0.10019334 0.089646667 0.79100001 4283383630
0.1017 0.089646667 0.79100001 4282858575
0.10320667 0.089646667 0.79100001 4283255121
0.10471333 0.089646667 0.79100001 4283584345
0.10622 0.089646667 0.79100001 4283715937
0.10772666 0.089646667 0.79100001 4283845719
0.10950953 0.089873336 0.79300004 4283450702
0.11102001 0.089873336 0.79300004 4283056973
0.11253048 0.089873336 0.79300004 4283320396
0.11404096 0.089873336 0.79300004 4283648078
0.11584286 0.090100005 0.79500002 4283910480
0.11765239 0.090326667 0.79700005 4284107601
0.11917048 0.090326667 0.79700005 4283253586
0.12068858 0.090326667 0.79700005 4282463049
0.12220667 0.090326667 0.79700005 4282595393
0.12372477 0.090326667 0.79700005 4282728047
-0.023477143 0.086082861 0.74700004 4286062397
-0.021995239 0.085852385 0.74500006 4283827473
-0.020576192 0.085852385 0.74500006 4281674280
-0.019157145 0.085852385 0.74500006 4282069822
-0.017690476 0.085621901 0.74300003 4282528830
-0.01631905 0.085852385 0.74500006 4282594623
-0.01496 0.086198099 0.74800003 4282726207
-0.013535239 0.086198099 0.74800003 4282923584
-0.012142858 0.086428575 0.75000006 4283185992
-0.010714287 0.086428575 0.75000006 4283515729
-0.0092857154 0.086428575 0.75000006 4283845207
-0.0078780958 0.086659051 0.75200003 4284045149
-0.0064457143 0.086659051 0.75200003 4284243544
-0.0050133336 0.086659051 0.75200003 4283711570
-0.0035809525 0.086659051 0.75200003 4283184454
-0.0021485714 0.086659051 0.75200003 4283250745
-0.00071619049 0.086659051 0.75200003 4283318337
0.00071619049 0.086659051 0.75200003 4283580745
0.0021485714 0.086659051 0.75200003 4283843656
0.0035809525 0.086659051 0.75200003 4283515974
0.00502 0.086774282 0.75300002 4283252811
0.0064542862 0.086774282 0.75300002 4282725967
0.0079095243 0.087004766 0.75500005 4282269263
0.0093476195 0.087004766 0.75500005 4282925903
0.010785715 0.087004766 0.75500005 4283649098
0.012240001 0.087120004 0.75600004 4283583302
0.01368 0.087120004 0.75600004 4283515714
0.01516 0.08735048 0.75800002 4283315006
0.016603809 0.08735048 0.75800002 4283185986
0.01804762 0.08735048 0.75800002 4283384135
0.019491429 0.08735048 0.75800002 4283581515
0.020935237 0.08735048 0.75800002 4283845455
0.022438096 0.087580957 0.76000005 4284171599
0.023885716 0.087580957 0.76000005 4283513422
0.025266668 0.08735048 0.75800002 4282923342
0.026710477 0.08735048 0.75800002 4283119951
0.028154286 0.08735048 0.75800002 4283383886
0.029676192 0.087580957 0.76000005 4283517518
0.031164765 0.087696187 0.76100004 4283713868
0.032614287 0.087696187 0.76100004 4283056458
0.034153335 0.087926663 0.76300001 4282399824
0.035700001 0.088157147 0.76500005 4282857558
0.037157144 0.088157147 0.76500005 4283318104
0.038614288 0.088157147 0.76500005 4283842650
0.040071428 0.088157147 0.76500005 4284369234
0.041528575 0.088157147 0.76500005 4283843659
0.043098096 0.088387616 0.76700002 4283384141
0.04455905 0.088387616 0.76700002 4283449423
0.046020001 0.088387616 0.76700002 4283581780
0.047542859 0.088502854 0.76800001 4283780185
0.049005713 0.088502854 0.76800001 4284042321
0.050468571 0.088502854 0.76800001 4283780424
0.05193143 0.088502854 0.76800001 4283582527
0.053533334 0.088733338 0.77000004 4283450422
0.055000003 0.088733338 0.77000004 4283319876
0.056466669 0.088733338 0.77000004 4283648082
0.058159053 0.089079052 0.77300006 4283977300
0.059631433 0.089079052 0.77300006 4283978838
0.061103813 0.089079052 0.77300006 4283978311
0.06257619 0.089079052 0.77300006 4283580984
0.064048581 0.089079052 0.77300006 4283250754
0.06569048 0.089309521 0.77500004 4283644747
0.066993333 0.089079052 0.77300006 4284042318
0.068465717 0.089079052 0.77300006 4283915600
0.070299998 0.089539997 0.77700001 4283845189
0.071964763 0.089770481 0.77900004 4283578938
0.073448576 0.089770481 0.77900004 4283318853
0.074932382 0.089770481 0.77900004 4283582800
0.076416194 0.089770481 0.77900004 4283910999
0.077900007 0.089770481 0.77900004 4284507486
0.079383813 0.089770481 0.77900004 4285092693
0.080867618 0.089770481 0.77900004 4284233037
0.08245714 0.089885719 0.78000003 4283382862
0.08394286 0.089885719 0.78000003 4283516751
0.085647628 0.090116195 0.78200006 4283714645
0.087360002 0.090346672 0.78400004 4284239964
0.089080006 0.090577148 0.78600001 4284829771
0.090346672 0.090346672 0.78400004 4283644986
0.091840006 0.090346672 0.78400004 4282531909
0.093571424 0.090577148 0.78600001 4283058768
0.095068567 0.090577148 0.78600001 4283648340
0.096565716 0.090577148 0.78600001 4283648343
0.097813338 0.090346672 0.78400004 4283713106
0.099306665 0.090346672 0.78400004 4283186509
0.1017 0.091153331 0.79100001 4282662734
0.10320667 0.091153331 0.79100001 4283123792
0.10444857 0.090922855 0.78900003 4283649363
0.10622 0.091153331 0.79100001 4283650390
0.10772666 0.091153331 0.79100001 4283648589
0.10950953 0.091383815 0.79300004 4283253828
0.11102001 0.091383815 0.79300004 4282860873
0.11253048 0.091383815 0.79300004 4283255117
0.11432858 0.091614284 0.79500002 4283648082
0.11613429 0.091844767 0.79700005 4283977047
0.11765239 0.091844767 0.79700005 4284369493
0.11917048 0.091844767 0.79700005 4283188307
0.12038572 0.091614284 0.79500002 4282067796
0.1219 0.091614284 0.79500002 4283367765
0.12341429 0.091614284 0.79500002 4284769923
-0.024900001 0.087505721 0.74700004 4288251741
-0.023414288 0.087271437 0.74500006 4284879163
-0.021995239 0.087271437 0.74500006 4283437338
-0.020576192 0.087271437 0.74500006 4282002733
-0.019105716 0.087037146 0.74300003 4282266944
-0.017690476 0.087037146 0.74300003 4282594880
-0.01631905 0.087271437 0.74500006 4282594880
-0.01496 0.087622859 0.74800003 4282660418
-0.013535239 0.087622859 0.74800003 4282923076
-0.012142858 0.08785715 0.75000006 4283185736
-0.010714287 0.08785715 0.75000006 4283449677
-0.0092857154 0.08785715 0.75000006 4283779149
-0.0078571439 0.08785715 0.75000006 4284241742
-0.0064285719 0.08785715 0.75000006 4284768338
-0.0050000004 0.08785715 0.75000006 4283711318
-0.0035809525 0.088091433 0.75200003 4282660178
-0.0021428573 0.08785715 0.75000006 4283055182
-0.00071619049 0.088091433 0.75200003 4283449679
0.00071619049 0.088091433 0.75200003 4283647056
0.0021428573 0.08785715 0.75000006 4283844687
0.0035714288 0.08785715 0.75000006 4283582030
0.0050133336 0.088091433 0.75200003 4283318865
0.0064457143 0.088091433 0.75200003 4282988117
0.0078885714 0.088208571 0.75300002 4282727507
0.0093104765 0.088091433 0.75200003 4283254098
0.010757143 0.088208571 0.75300002 4283780431
0.012240001 0.088560008 0.75600004 4283649100
0.01368 0.088560008 0.75600004 4283581516
0.015120002 0.088560008 0.75600004 4283380556
0.016603809 0.088794284 0.75800002 4283251788
0.01804762 0.088794284 0.75800002 4283384652
0.019491429 0.088794284 0.75800002 4283581517
0.020935237 0.088794284 0.75800002 4283779919
0.022438096 0.089028575 0.76000005 4283975503
0.023885716 0.089028575 0.76000005 4283448655
0.025266668 0.088794284 0.75800002 4282988368
0.026710477 0.088794284 0.75800002 4283186514
0.028154286 0.088794284 0.75800002 4283450191
0.029676192 0.089028575 0.76000005 4283648589
0.031164765 0.08914572 0.76100004 4283779149
0.032614287 0.08914572 0.76100004 4283318862
0.034153335 0.089379996 0.76300001 4282859348
0.035700001 0.089614294 0.76500005 4283120986
0.037157144 0.089614294 0.76500005 4283448407
0.038614288 0.089614294 0.76500005 4283777877
0.040071428 0.089614294 0.76500005 4284172882
0.041528575 0.089614294 0.76500005 4283778127
0.043098096 0.089848571 0.76700002 4283384401
0.04455905 0.089848571 0.76700002 4283514964
0.046020001 0.089848571 0.76700002 4283648352
0.047542859 0.089965716 0.76800001 4283845996
0.049005713 0.089965716 0.76800001 4284043616
0.050402857 0.089848571 0.76700002 4283845973
0.051863808 0.089848571 0.76700002 4283583564
0.053324763 0.089848571 0.76700002 4283319107
0.054785714 0.089848571 0.76700002 4283124043
0.056466669 0.090200007 0.77000004 4283517267
0.058309525 0.090785719 0.77500004 4283910737
0.059631433 0.090551436 0.77300006 4283978319
0.061103813 0.090551436 0.77300006 4284110909
0.062738098 0.090785719 0.77500004 4283710507
0.064214289 0.090785719 0.77500004 4283316801
0.065859996 0.091019996 0.77700001 4283579991
0.067166664 0.090785719 0.77500004 4283908958
0.068642862 0.090785719 0.77500004 4283778661
0.070480958 0.091254294 0.77900004 4283713863
0.071964763 0.091254294 0.77900004 4283383337
0.073448576 0.091254294 0.77900004 4283121725
0.074932382 0.091254294 0.77900004 4283451218
0.076416194 0.091254294 0.77900004 4283780191
0.077699997 0.091019996 0.77700001 4284174700
0.079383813 0.091254294 0.77900004 4284503645
0.080867618 0.091254294 0.77900004 4283906127
0.082351431 0.091254294 0.77900004 4283382862
0.08394286 0.091371432 0.78000003 4283516493
0.085647628 0.091605715 0.78200006 4283714125
0.087360002 0.091840006 0.78400004 4283977549
0.088853337 0.091840006 0.78400004 4284304716
0.090346672 0.091840006 0.78400004 4283645260
0.091840006 0.091840006 0.78400004 4282990671
0.093571424 0.092074282 0.78600001 4283320402
0.095068567 0.092074282 0.78600001 4283647834
0.096565716 0.092074282 0.78600001 4283779426
0.097813338 0.091840006 0.78400004 4283845207
0.099306665 0.091840006 0.78400004 4283383884
0.1017 0.092659995 0.79100001 4282925645
0.10320667 0.092659995 0.79100001 4283320143
0.10444857 0.092425719 0.78900003 4283780173
0.10622 0.092659995 0.79100001 4283649356
0.10772666 0.092659995 0.79100001 4283582787
0.10923333 0.092659995 0.79100001 4283320379
0.11102001 0.092894286 0.79300004 4283057989
0.11253048 0.092894286 0.79300004 4283320143
0.11432858 0.093128577 0.79500002 4283517015
0.11613429 0.09336286 0.79700005 4283779423
0.1178 0.093480006 0.79800004 4283976281
0.11917048 0.09336286 0.79700005 4282990676
0.12068858 0.09336286 0.79700005 4281934686
0.12220667 0.09336286 0.79700005 4284228713
0.12372477 0.09336286 0.79700005 4286484376
-0.024900001 0.08892858 0.74700004 4287329083
-0.023414288 0.088690482 0.74500006 4283697713
-0.021995239 0.088690482 0.74500006 4282981927
-0.020520953 0.088452376 0.74300003 4282331190
-0.019105716 0.088452376 0.74300003 4282464070
-0.017690476 0.088452376 0.74300003 4282660676
-0.01631905 0.088690482 0.74500006 4282595139
-0.01496 0.089047618 0.74800003 4282594628
-0.013535239 0.089047618 0.74800003 4282856261
-0.012142858 0.089285724 0.75000006 4283185481
-0.010714287 0.089285724 0.75000006 4283449422
-0.0092857154 0.089285724 0.75000006 4283779156
-0.0078780958 0.089523815 0.75200003 4284504154
-0.0064457143 0.089523815 0.75200003 4285291863
-0.0050133336 0.089523815 0.75200003 4283711316
-0.0035809525 0.089523815 0.75200003 4282138449
-0.0021485714 0.089523815 0.75200003 4282859599
-0.00071619049 0.089523815 0.75200003 4283580500
0.00071619049 0.089523815 0.75200003 4283713625
0.0021485714 0.089523815 0.75200003 4283844691
0.0035714288 0.089285724 0.75000006 4283582541
0.0050133336 0.089523815 0.75200003 4283383368
0.0064285719 0.089285724 0.75000006 4283316035
0.0078571439 0.089285724 0.75000006 4283252047
0.0093476195 0.089880958 0.75500005 4283582555
0.010828571 0.090238094 0.75800002 4283911251
0.012272381 0.090238094 0.75800002 4283780428
0.013716191 0.090238094 0.75800002 4283647820
0.01516 0.090238094 0.75800002 4283446093
0.01664762 0.0904762 0.76000005 4283317325
0.01809524 0.0904762 0.76000005 4283450957
0.019491429 0.090238094 0.75800002 4283582037
0.020990476 0.0904762 0.76000005 4283649117
0.022438096 0.0904762 0.76000005 4283778897
0.023885716 0.0904762 0.76000005 4283383877
0.025333336 0.0904762 0.76000005 4283056203
0.026710477 0.090238094 0.75800002 4283318609
0.028228572 0.0904762 0.76000005 4283581519
0.02971524 0.090595245 0.76100004 4283714126
0.031246668 0.090833329 0.76300001 4283909712
0.032699998 0.090833329 0.76300001 4283581266
0.034242857 0.091071434 0.76500005 4283318101
0.035700001 0.091071434 0.76500005 4283448408
0.037157144 0.091071434 0.76500005 4283579993
0.038614288 0.091071434 0.76500005 4283778650
0.040071428 0.091071434 0.76500005 4284041302
0.041528575 0.091071434 0.76500005 4283712849
0.042985715 0.091071434 0.76500005 4283449683
0.044442859 0.091071434 0.76500005 4283580501
0.045900002 0.091071434 0.76500005 4283713116
0.047480952 0.091309525 0.76700002 4283912036
0.048941903 0.091309525 0.76700002 4284108381
0.050468571 0.09142857 0.76800001 4283845974
0.052066669 0.091666676 0.77000004 4283647823
0.053533334 0.091666676 0.77000004 4283253321
0.055000003 0.091666676 0.77000004 4282927181
0.056613334 0.091904759 0.77200001 4283386706
0.058309525 0.09226191 0.77500004 4283845971
0.059785716 0.09226191 0.77500004 4284043348
0.061261907 0.09226191 0.77500004 4284305223
0.062738098 0.09226191 0.77500004 4283840314
0.064214289 0.09226191 0.77500004 4283448646
0.065859996 0.092500001 0.77700001 4283581010
0.067166664 0.09226191 0.77500004 4283778392
0.068642862 0.09226191 0.77500004 4283648094
0.070299998 0.092500001 0.77700001 4283582794
0.071780004 0.092500001 0.77700001 4283253301
0.073448576 0.092738099 0.77900004 4282991683
0.07474 0.092500001 0.77700001 4283319888
0.076219998 0.092500001 0.77700001 4283714648
0.077699997 0.092500001 0.77700001 4283848031
0.079383813 0.092738099 0.77900004 4283977550
0.080867618 0.092738099 0.77900004 4283644989
0.082351431 0.092738099 0.77900004 4283382851
0.08394286 0.092857152 0.78000003 4283516490
0.085647628 0.093095243 0.78200006 4283713871
0.087137155 0.093095243 0.78200006 4283780949
0.088853337 0.093333341 0.78400004 4283845457
0.090346672 0.093333341 0.78400004 4283645518
0.091840006 0.093333341 0.78400004 4283449167
0.093333341 0.093333341 0.78400004 4283582288
0.094826676 0.093333341 0.78400004 4283713621
0.096320003 0.093333341 0.78400004 4283845723
0.098062858 0.093571424 0.78600001 4284041034
0.099813342 0.09380953 0.78800005 4283647034
0.10131429 0.09380953 0.78800005 4283253060
0.10294572 0.093928576 0.78900003 4283582029
0.10444857 0.093928576 0.78900003 4283910736
0.10595144 0.093928576 0.78900003 4283715155
0.10772666 0.094166666 0.79100001 4283582027
0.10923333 0.094166666 0.79100001 4283449412
0.11074 0.094166666 0.79100001 4283319371
0.11253048 0.094404764 0.79300004 4283385682
0.11404096 0.094404764 0.79300004 4283451477
0.11613429 0.094880961 0.79700005 4283517271
0.1178 0.095000006 0.79800004 4283648073
0.11917048 0.094880961 0.79700005 4282727483
0.12068858 0.094880961 0.79700005 4281868380
0.12220667 0.094880961 0.79700005 4285024381
0.12372477 0.094880961 0.79700005 4288257692
-0.024900001 0.090351433 0.74700004 4284898330
-0.023351429 0.089867629 0.74300003 4283040807
-0.021936191 0.089867629 0.74300003 4282785844
-0.020520953 0.089867629 0.74300003 4282463040
-0.019105716 0.089867629 0.74300003 4282462797
-0.017690476 0.089867629 0.74300003 4282528073
-0.01631905 0.090109527 0.74500006 4282528326
-0.014940001 0.090351433 0.74700004 4282528838
-0.013535239 0.090472385 0.74800003 4282725191
-0.012142858 0.090714291 0.75000006 4282988619
-0.010714287 0.090714291 0.75000006 4283317839
-0.0092857154 0.090714291 0.75000006 4283582554
-0.0078780958 0.090956196 0.75200003 4284044390
-0.0064457143 0.090956196 0.75200003 4284570204
-0.0050133336 0.090956196 0.75200003 4283579730
-0.0035809525 0.090956196 0.75200003 4282660689
-0.0021485714 0.090956196 0.75200003 4283055697
-0.00071619049 0.090956196 0.75200003 4283514969
0.00071619049 0.090956196 0.75200003 4283844450
0.0021485714 0.090956196 0.75200003 4284172119
0.0035714288 0.090714291 0.75000006 4283712332
0.0050133336 0.090956196 0.75200003 4283316799
0.0064457143 0.090956196 0.75200003 4283251762
0.0078780958 0.090956196 0.75200003 4283186763
0.0093476195 0.091319054 0.75500005 4283647844
0.010785715 0.091319054 0.75500005 4284173400
0.012272381 0.091681905 0.75800002 4283845452
0.013716191 0.091681905 0.75800002 4283517517
0.015200001 0.091923811 0.76000005 4283380558
0.01664762 0.091923811 0.76000005 4283252046
0.01809524 0.091923811 0.76000005 4283384654
0.019491429 0.091681905 0.75800002 4283517276
0.020990476 0.091923811 0.76000005 4283713643
0.022438096 0.091923811 0.76000005 4283910227
0.023885716 0.091923811 0.76000005 4283515195
0.025333336 0.091923811 0.76000005 4283122245
0.026710477 0.091681905 0.75800002 4283319120
0.028228572 0.091923811 0.76000005 4283516240
0.029793333 0.092286669 0.76300001 4283845712
0.031246668 0.092286669 0.76300001 4284174419
0.032699998 0.092286669 0.76300001 4283712086
0.034242857 0.092528574 0.76500005 4283315798
0.035700001 0.092528574 0.76500005 4283382871
0.037157144 0.092528574 0.76500005 4283514971
0.038513333 0.092286669 0.76300001 4283844704
0.039966665 0.092286669 0.76300001 4284173146
0.041420002 0.092286669 0.76300001 4283777876
0.042873334 0.092286669 0.76300001 4283383893
0.044326667 0.092286669 0.76300001 4283514711
0.045900002 0.092528574 0.76500005 4283647065
0.047357146 0.092528574 0.76500005 4283977052
0.048941903 0.09277048 0.76700002 4284372826
0.050468571 0.092891432 0.76800001 4283909720
0.05193143 0.092891432 0.76800001 4283515219
0.053394284 0.092891432 0.76800001 4283318607
0.055000003 0.093133338 0.77000004 4283189072
0.056613334 0.093375236 0.77200001 4283452497
0.05808381 0.093375236 0.77200001 4283781461
0.059785716 0.093738094 0.77500004 4283846234
0.061261907 0.093738094 0.77500004 4283975250
0.062738098 0.093738094 0.77500004 4283646794
0.064214289 0.093738094 0.77500004 4283384140
0.06569048 0.093738094 0.77500004 4283647054
0.067166664 0.093738094 0.77500004 4283975763
0.068642862 0.093738094 0.77500004 4283779416
0.070299998 0.093979999 0.77700001 4283583053
0.071780004 0.093979999 0.77700001 4283384130
0.073260002 0.093979999 0.77700001 4283123272
0.07474 0.093979999 0.77700001 4283385679
0.076219998 0.093979999 0.77700001 4283649105
0.077699997 0.093979999 0.77700001 4283714131
0.079180002 0.093979999 0.77700001 4283779391
0.08066 0.093979999 0.77700001 4283579691
0.082351431 0.094221912 0.77900004 4283448377
