# .PCD v0.7 - Point Cloud Data file format
VERSION 0.7
FIELDS x y z rgba
SIZE 4 4 4 4
TYPE F F F U
COUNT 1 1 1 1
WIDTH 1039
HEIGHT 1
VIEWPOINT 0 0 0 1 0 0 0
POINTS 1039
DATA ascii
0.079071432 0.00064285717 0.67500001 4280162089
0.080476195 0.00064380956 0.67600006 4280161575
0.081763811 0.00064380956 0.67600006 4280161313
0.083051436 0.00064380956 0.67600006 4280030236
0.084339052 0.00064380956 0.67600006 4279898401
0.085626669 0.00064380956 0.67600006 4279897894
0.087171435 0.00064571429 0.67800003 4279899174
0.08820191 0.00064380956 0.67600006 4279898406
0.089489527 0.00064380956 0.67600006 4279898401
0.067400001 0.0019257143 0.67400002 4281082420
0.068480007 0.0019200002 0.67200005 4281016366
0.06976001 0.0019200002 0.67200005 4280950568
0.07125143 0.0019257143 0.67400002 4280950554
0.072535239 0.0019257143 0.67400002 4280688397
0.073819049 0.0019257143 0.67400002 4280490007
0.075214282 0.0019285715 0.67500001 4280360226
0.076500006 0.0019285715 0.67500001 4280227366
0.077785715 0.0019285715 0.67500001 4280161579
0.079071432 0.0019285715 0.67500001 4280096040
0.080357142 0.0019285715 0.67500001 4279964710
0.081763811 0.0019314287 0.67600006 4279833370
0.083051436 0.0019314287 0.67600006 4280029710
0.084339052 0.0019314287 0.67600006 4280160536
0.085626669 0.0019314287 0.67600006 4280356643
0.086914293 0.0019314287 0.67600006 4280489253
0.08820191 0.0019314287 0.67600006 4280620327
0.089489527 0.0019314287 0.67600006 4280751659
0.061895236 0.0031904762 0.67000002 4281017642
0.063171431 0.0031904762 0.67000002 4280885805
0.065920003 0.0032000002 0.67200005 4280754223
0.067200005 0.0032000002 0.67200005 4280688686
0.068480007 0.0032000002 0.67200005 4280622889
0.06976001 0.0032000002 0.67200005 4280688165
0.07125143 0.0032095239 0.67400002 4280753693
0.072535239 0.0032095239 0.67400002 4280557334
0.073819049 0.0032095239 0.67400002 4280360478
0.075102858 0.0032095239 0.67400002 4280229415
0.076386668 0.0032095239 0.67400002 4280162088
0.077785715 0.0032142857 0.67500001 4280096298
0.079071432 0.0032142857 0.67500001 4280030505
0.080357142 0.0032142857 0.67500001 4279767849
0.081763811 0.003219048 0.67600006 4279571491
0.083051436 0.003219048 0.67600006 4280028957
0.084339052 0.003219048 0.67600006 4280487718
0.085626669 0.003219048 0.67600006 4280815663
0.086914293 0.003219048 0.67600006 4281145389
0.08820191 0.003219048 0.67600006 4281409580
0.056705717 0.00446 0.66900003 4280886321
0.057980001 0.00446 0.66900003 4281016623
0.059342857 0.0044666668 0.67000002 4280950573
0.060619049 0.0044666668 0.67000002 4280884782
0.061895236 0.0044666668 0.67000002 4280818991
0.063171431 0.0044666668 0.67000002 4280818733
0.064447619 0.0044666668 0.67000002 4280753196
0.065920003 0.0044800006 0.67200005 4280687914
0.067200005 0.0044800006 0.67200005 4280556840
0.068480007 0.0044800006 0.67200005 4280491557
0.06976001 0.0044800006 0.67200005 4280491554
0.07125143 0.0044933339 0.67400002 4280557088
0.072535239 0.0044933339 0.67400002 4280426015
0.073819049 0.0044933339 0.67400002 4280360741
0.075102858 0.0044933339 0.67400002 4280294188
0.076500006 0.0044999998 0.67500001 4280227882
0.077785715 0.0044999998 0.67500001 4280292905
0.079071432 0.0044999998 0.67500001 4280358187
0.080357142 0.0044999998 0.67500001 4280358189
0.081763811 0.0045066671 0.67600006 4280423725
0.083051436 0.0045066671 0.67600006 4280751917
0.084339052 0.0045066671 0.67600006 4281145652
0.085626669 0.0045066671 0.67600006 4281409851
0.086914293 0.0045066671 0.67600006 4281674038
0.08820191 0.0045066671 0.67600006 4281806385
0.05137714 0.0057085715 0.66600001 4281149484
0.052724764 0.005717143 0.66700006 4281083180
0.054157145 0.0057342858 0.66900003 4280558124
0.055431429 0.0057342858 0.66900003 4280033580
0.056705717 0.0057342858 0.66900003 4280361260
0.057980001 0.0057342858 0.66900003 4280753961
0.059254289 0.0057342858 0.66900003 4280687398
0.060619049 0.0057428572 0.67000002 4280687912
0.06180286 0.0057342858 0.66900003 4280688939
0.063171431 0.0057428572 0.67000002 4280753194
0.064447619 0.0057428572 0.67000002 4280687145
0.065821901 0.0057514287 0.671 4280621605
0.067200005 0.0057600001 0.67200005 4280490530
0.068480007 0.0057600001 0.67200005 4280425251
0.06976001 0.0057600001 0.67200005 4280360228
0.07125143 0.0057771429 0.67400002 4280359711
0.072535239 0.0057771429 0.67400002 4280359451
0.073819049 0.0057771429 0.67400002 4280424736
0.075102858 0.0057771429 0.67400002 4280359206
0.076500006 0.0057857144 0.67500001 4280293159
0.077785715 0.0057857144 0.67500001 4280489513
0.079071432 0.0057857144 0.67500001 4280751915
0.080357142 0.0057857144 0.67500001 4281014573
0.081763811 0.0057942863 0.67600006 4281278254
0.083051436 0.0057942863 0.67600006 4281541935
0.084339052 0.0057942863 0.67600006 4281805619
0.085626669 0.0057942863 0.67600006 4282004024
0.086914293 0.0057942863 0.67600006 4282265909
0.08820191 0.0057942863 0.67600006 4282265907
0.048913337 0.0069876197 0.66700006 4280819505
0.050108574 0.0069771428 0.66600001 4280622124
0.05137714 0.0069771428 0.66600001 4280687656
0.052645713 0.0069771428 0.66600001 4280818729
0.054157145 0.0070085716 0.66900003 4280556843
0.055431429 0.0070085716 0.66900003 4280294953
0.056705717 0.0070085716 0.66900003 4280426023
0.057980001 0.0070085716 0.66900003 4280557091
0.059254289 0.0070085716 0.66900003 4280425248
0.060528576 0.0070085716 0.66900003 4280359971
0.06180286 0.0070085716 0.66900003 4280556583
0.063171431 0.0070190481 0.67000002 4280753447
0.064447619 0.0070190481 0.67000002 4280687399
0.065821901 0.0070295236 0.671 4280621601
0.067200005 0.0070400005 0.67200005 4280424988
0.068480007 0.0070400005 0.67200005 4280293921
0.06996762 0.007060953 0.67400002 4280424998
0.07125143 0.007060953 0.67400002 4280556062
0.072535239 0.007060953 0.67400002 4280556055
0.073819049 0.007060953 0.67400002 4280621851
0.075214282 0.0070714285 0.67500001 4280753184
0.076500006 0.0070714285 0.67500001 4280950309
0.077785715 0.0070714285 0.67500001 4281213482
0.079071432 0.0070714285 0.67500001 4281476908
0.080357142 0.0070714285 0.67500001 4281674286
0.081763811 0.0070819054 0.67600006 4281871920
0.083297148 0.0071028573 0.67800003 4281938226
0.084588572 0.0071028573 0.67800003 4282004787
0.085626669 0.0070819054 0.67600006 4282135861
0.049059998 0.0082828579 0.66900003 4280228645
0.050183814 0.0082580959 0.66700006 4280097574
0.051454291 0.0082580959 0.66700006 4280294183
0.052724764 0.0082580959 0.66700006 4280556328
0.054157145 0.0082828579 0.66900003 4280556329
0.055431429 0.0082828579 0.66900003 4280556329
0.056705717 0.0082828579 0.66900003 4280490793
0.057980001 0.0082828579 0.66900003 4280425254
0.059254289 0.0082828579 0.66900003 4280228899
0.060528576 0.0082828579 0.66900003 4280032548
0.06180286 0.0082828579 0.66900003 4280360486
0.063171431 0.008295238 0.67000002 4280753446
0.064543813 0.0083076181 0.671 4280687911
0.065821901 0.0083076181 0.671 4280621862
0.067200005 0.008320001 0.67200005 4280359717
0.068480007 0.008320001 0.67200005 4280163112
0.06996762 0.008344762 0.67400002 4280424235
0.07125143 0.008344762 0.67400002 4280752425
0.072535239 0.008344762 0.67400002 4280816679
0.073819049 0.008344762 0.67400002 4280884775
0.075214282 0.008357143 0.67500001 4281213479
0.076500006 0.008357143 0.67500001 4281607978
0.077785715 0.008357143 0.67500001 4281936941
0.079071432 0.008357143 0.67500001 4282265392
0.080357142 0.008357143 0.67500001 4282331699
0.082005717 0.008394286 0.67800003 4282463285
0.083297148 0.008394286 0.67800003 4282332728
0.084588572 0.008394286 0.67800003 4282201399
0.042560954 0.0095285727 0.66700006 4280686636
0.04383143 0.0095285727 0.66700006 4280555305
0.045101907 0.0095285727 0.66700006 4280489513
0.048913337 0.0095285727 0.66700006 4280425242
0.050183814 0.0095285727 0.66700006 4280293920
0.051454291 0.0095285727 0.66700006 4280425511
0.052724764 0.0095285727 0.66700006 4280622887
0.054157145 0.0095571438 0.66900003 4280622375
0.055431429 0.0095571438 0.66900003 4280622377
0.056705717 0.0095571438 0.66900003 4280490540
0.057980001 0.0095571438 0.66900003 4280424745
0.059254289 0.0095571438 0.66900003 4280359974
0.060528576 0.0095571438 0.66900003 4280294950
0.061895236 0.0095714284 0.67000002 4280426022
0.063171431 0.0095714284 0.67000002 4280557094
0.064543813 0.0095857149 0.671 4280556583
0.065920003 0.0096000005 0.67200005 4280556587
0.067200005 0.0096000005 0.67200005 4280622127
0.068683811 0.0096285716 0.67400002 4280687920
0.06996762 0.0096285716 0.67400002 4280949297
0.07125143 0.0096285716 0.67400002 4281210932
0.072535239 0.0096285716 0.67400002 4281344055
0.073819049 0.0096285716 0.67400002 4281477427
0.075214282 0.0096428571 0.67500001 4281740335
0.076500006 0.0096428571 0.67500001 4282003504
0.077900954 0.0096571436 0.67600006 4282135089
0.079188578 0.0096571436 0.67600006 4282332213
0.080476195 0.0096571436 0.67600006 4282397753
0.082005717 0.0096857138 0.67800003 4282463547
0.083297148 0.0096857138 0.67800003 4282398014
0.036100004 0.010766666 0.66500002 4280557110
0.037366666 0.010766666 0.66500002 4280229430
0.038633335 0.010766666 0.66500002 4280490550
0.039900001 0.010766666 0.66500002 4280752433
0.04122857 0.010782857 0.66600001 4280555821
0.042560954 0.010799048 0.66700006 4280424743
0.04383143 0.010799048 0.66700006 4280424737
0.045101907 0.010799048 0.66700006 4280424740
0.046372388 0.010799048 0.66700006 4280556072
0.047642861 0.010799048 0.66700006 4280752676
0.049059998 0.010831429 0.66900003 4280621856
0.050183814 0.010799048 0.66700006 4280556578
0.051454291 0.010799048 0.66700006 4280622372
0.052724764 0.010799048 0.66700006 4280687909
0.054157145 0.010831429 0.66900003 4280687911
0.055431429 0.010831429 0.66900003 4280753196
0.056705717 0.010831429 0.66900003 4280556081
0.057980001 0.010831429 0.66900003 4280424749
0.059254289 0.010831429 0.66900003 4280491049
0.060528576 0.010831429 0.66900003 4280622113
0.061895236 0.010847619 0.67000002 4280491290
0.063171431 0.010847619 0.67000002 4280425503
0.064543813 0.010863809 0.671 4280491045
0.065821901 0.010863809 0.671 4280556075
0.067200005 0.010880001 0.67200005 4280883506
0.068480007 0.010880001 0.67200005 4281212466
0.06976001 0.010880001 0.67200005 4281476146
0.07125143 0.010912381 0.67400002 4281740340
0.072535239 0.010912381 0.67400002 4281938998
0.073928572 0.010928571 0.67500001 4282135348
0.075214282 0.010928571 0.67500001 4282266418
0.076500006 0.010928571 0.67500001 4282463028
0.077785715 0.010928571 0.67500001 4282397494
0.079071432 0.010928571 0.67500001 4282397501
0.080476195 0.010944762 0.67600006 4282398020
0.034885716 0.012051429 0.66600001 4280687156
0.036100004 0.012033333 0.66500002 4280556594
0.037422854 0.012051429 0.66600001 4280426035
0.038633335 0.012033333 0.66500002 4280490036
0.039960001 0.012051429 0.66600001 4280555311
0.04122857 0.012051429 0.66600001 4280358698
0.042560954 0.012069525 0.66700006 4280162082
0.04383143 0.012069525 0.66700006 4280359450
0.045101907 0.012069525 0.66700006 4280556320
0.046372388 0.012069525 0.66700006 4280622119
0.047642861 0.012069525 0.66700006 4280687911
0.049059998 0.012105715 0.66900003 4280687911
0.050183814 0.012069525 0.66700006 4280622372
0.051454291 0.012069525 0.66700006 4280687906
0.052724764 0.012069525 0.66700006 4280753700
0.054157145 0.012105715 0.66900003 4280753447
0.055431429 0.012105715 0.66900003 4280753199
0.056705717 0.012105715 0.66900003 4280621623
0.057980001 0.012105715 0.66900003 4280490546
0.059254289 0.012105715 0.66900003 4280556077
0.060619049 0.01212381 0.67000002 4280688669
0.061895236 0.01212381 0.67000002 4280754190
0.063265711 0.012141905 0.671 4280819992
0.064543813 0.012141905 0.671 4281017379
0.065821901 0.012141905 0.671 4281149228
0.067200005 0.01216 0.67200005 4281412149
0.068480007 0.01216 0.67200005 4281740852
0.06976001 0.01216 0.67200005 4281937971
0.071040004 0.01216 0.67200005 4282200884
0.072320007 0.01216 0.67200005 4282267190
0.073928572 0.012214285 0.67500001 4282333238
0.075214282 0.012214285 0.67500001 4282398518
0.076500006 0.012214285 0.67500001 4282529337
0.077785715 0.012214285 0.67500001 4282528828
0.079071432 0.012214285 0.67500001 4282528581
-0.0018857142 0.013200001 0.66000003 4282661447
-0.00062857143 0.013200001 0.66000003 4282595652
0.00062857143 0.013200001 0.66000003 4282661185
0.034885716 0.01332 0.66600001 4280556076
0.036154289 0.01332 0.66600001 4280621616
0.03747905 0.013340001 0.66700006 4280686640
0.038691428 0.01332 0.66600001 4280555313
0.039960001 0.01332 0.66600001 4280423982
0.041290481 0.013340001 0.66700006 4280161835
0.042560954 0.013340001 0.66700006 4279900710
0.04383143 0.013340001 0.66700006 4280294689
0.045101907 0.013340001 0.66700006 4280753445
0.04651143 0.01338 0.66900003 4280687914
0.047785718 0.01338 0.66900003 4280687913
0.049059998 0.01338 0.66900003 4280687913
0.050334286 0.01338 0.66900003 4280753448
0.051608574 0.01338 0.66900003 4280754471
0.052724764 0.013340001 0.66700006 4280818984
0.054157145 0.01338 0.66900003 4280753705
0.055431429 0.01338 0.66900003 4280753191
0.056705717 0.01338 0.66900003 4280687398
0.057980001 0.01338 0.66900003 4280621354
0.059342857 0.013400001 0.67000002 4280686639
0.060709521 0.01342 0.671 4280751915
0.061987616 0.01342 0.671 4281013799
0.063265711 0.01342 0.671 4281280554
0.06464 0.013440001 0.67200005 4281543212
0.065821901 0.01342 0.671 4281806384
0.067200005 0.013440001 0.67200005 4282004275
0.068480007 0.013440001 0.67200005 4282266933
0.06976001 0.013440001 0.67200005 4282464055
0.071040004 0.013440001 0.67200005 4282726456
0.072320007 0.013440001 0.67200005 4282661178
-0.013139999 0.014391429 0.65700001 4283053896
-0.011906668 0.014413333 0.65800005 4282988360
-0.010653334 0.014413333 0.65800005 4282857546
-0.0094000008 0.014413333 0.65800005 4282922829
-0.0081466679 0.014413333 0.65800005 4282922825
-0.0068933335 0.014413333 0.65800005 4282857030
-0.005657143 0.014457143 0.66000003 4282792516
-0.0044000004 0.014457143 0.66000003 4282792515
-0.0031428572 0.014457143 0.66000003 4282857282
-0.00062857143 0.014457143 0.66000003 4282792257
0.00062857143 0.014457143 0.66000003 4282726465
0.0018857142 0.014457143 0.66000003 4282725692
0.0031428572 0.014457143 0.66000003 4282922807
0.0043866672 0.014413333 0.65800005 4283054650
0.0056400001 0.014413333 0.65800005 4283053885
0.033566669 0.014566666 0.66500002 4280621851
0.034833334 0.014566666 0.66500002 4280555300
0.036100004 0.014566666 0.66500002 4280620846
0.037422854 0.014588571 0.66600001 4280751918
0.038633335 0.014566666 0.66500002 4280621102
0.039960001 0.014588571 0.66600001 4280490797
0.04122857 0.014588571 0.66600001 4280359980
0.042560954 0.014610478 0.66700006 4280294698
0.04383143 0.014610478 0.66700006 4280491304
0.045101907 0.014610478 0.66700006 4280753450
0.046372388 0.014610478 0.66700006 4280687917
0.047642861 0.014610478 0.66700006 4280688172
0.048913337 0.014610478 0.66700006 4280688172
0.050334286 0.014654286 0.66900003 4280753708
0.051608574 0.014654286 0.66900003 4280753453
0.052882861 0.014654286 0.66900003 4280753196
0.054157145 0.014654286 0.66900003 4280884268
0.055431429 0.014654286 0.66900003 4281081120
0.056790475 0.014676191 0.67000002 4281081109
0.058066666 0.014676191 0.67000002 4281146915
0.059342857 0.014676191 0.67000002 4281277233
0.060619049 0.014676191 0.67000002 4281407545
0.061987616 0.014698096 0.671 4281607233
0.063265711 0.014698096 0.671 4281806907
0.06464 0.014720001 0.67200005 4282004534
0.065920003 0.014720001 0.67200005 4282202164
0.067200005 0.014720001 0.67200005 4282267954
0.068480007 0.014720001 0.67200005 4282334006
0.06976001 0.014720001 0.67200005 4282399035
0.071040004 0.014720001 0.67200005 4282529597
-0.016894286 0.015642857 0.65700001 4282988361
-0.015642857 0.015642857 0.65700001 4282988360
-0.014391429 0.015642857 0.65700001 4283053896
-0.013139999 0.015642857 0.65700001 4283184966
-0.011906668 0.015666667 0.65800005 4283119685
-0.010653334 0.015666667 0.65800005 4283054150
-0.0094000008 0.015666667 0.65800005 4282988616
-0.0081466679 0.015666667 0.65800005 4282988358
-0.0044000004 0.015714286 0.66000003 4282923841
-0.0031428572 0.015714286 0.66000003 4282988609
-0.0018857142 0.015714286 0.66000003 4282988610
-0.00062857143 0.015714286 0.66000003 4282988609
0.00062857143 0.015714286 0.66000003 4282857537
0.0018857142 0.015714286 0.66000003 4282791488
0.0031428572 0.015714286 0.66000003 4282987839
0.0044000004 0.015714286 0.66000003 4283184447
0.0056400001 0.015666667 0.65800005 4283184448
0.0068933335 0.015666667 0.65800005 4283184446
0.020805717 0.015761906 0.66200006 4281411889
0.022100002 0.015785715 0.66300005 4281345843
0.023362858 0.015785715 0.66300005 4281214261
0.024551429 0.015738094 0.66100001 4281082670
0.025810476 0.015738094 0.66100001 4280951335
0.02715143 0.015785715 0.66300005 4280818989
0.028414289 0.015785715 0.66300005 4280818995
0.029677145 0.015785715 0.66300005 4280884529
0.030940004 0.015785715 0.66300005 4280818992
0.032202858 0.015785715 0.66300005 4280753193
0.033465717 0.015785715 0.66300005 4280621859
0.034728575 0.015785715 0.66300005 4280556073
0.036100004 0.015833333 0.66500002 4280686895
0.037366666 0.015833333 0.66500002 4280817966
0.038633335 0.015833333 0.66500002 4280686894
0.039900001 0.015833333 0.66500002 4280621609
0.041166667 0.015833333 0.66500002 4280622117
0.042433333 0.015833333 0.66500002 4280687910
0.04383143 0.015880954 0.66700006 4280687912
0.045101907 0.015880954 0.66700006 4280753449
0.046372388 0.015880954 0.66700006 4280753451
0.047642861 0.015880954 0.66700006 4280753706
0.049059998 0.015928572 0.66900003 4280753706
0.050334286 0.015928572 0.66900003 4280753707
0.051608574 0.015928572 0.66900003 4280752171
0.052882861 0.015928572 0.66900003 4280752943
0.054157145 0.015928572 0.66900003 4281079091
0.055514287 0.01595238 0.67000002 4281408042
0.056790475 0.01595238 0.67000002 4281540385
0.058066666 0.01595238 0.67000002 4281673769
0.059431426 0.015976191 0.671 4281872944
0.060800005 0.016000001 0.67200005 4282136117
0.062080003 0.016000001 0.67200005 4282268475
0.063360006 0.016000001 0.67200005 4282399289
0.06464 0.016000001 0.67200005 4282464823
0.065920003 0.016000001 0.67200005 4282596152
0.067200005 0.016000001 0.67200005 4282465336
0.068480007 0.016000001 0.67200005 4282399547
-0.039866671 0.016559999 0.64400005 4290183501
-0.038640004 0.016559999 0.64400005 4290380615
-0.01927905 0.016791431 0.65300006 4283053386
-0.018090477 0.016842859 0.65500003 4282987850
-0.016842859 0.016842859 0.65500003 4282922315
-0.015642857 0.016894286 0.65700001 4282856777
-0.014391429 0.016894286 0.65700001 4282988360
-0.013139999 0.016894286 0.65700001 4283119685
-0.011906668 0.01692 0.65800005 4283053891
-0.010653334 0.01692 0.65800005 4282988355
-0.0094000008 0.01692 0.65800005 4282988355
-0.0081342859 0.016894286 0.65700001 4282988354
-0.0068828571 0.016894286 0.65700001 4282922818
-0.0056400001 0.01692 0.65800005 4282923072
-0.0043866672 0.01692 0.65800005 4282988607
-0.0031333335 0.01692 0.65800005 4282988864
-0.0018800002 0.01692 0.65800005 4283054146
-0.0006266667 0.01692 0.65800005 4283055169
0.00062857143 0.01697143 0.66000003 4283120449
0.0018857142 0.01697143 0.66000003 4283185988
0.0031428572 0.01697143 0.66000003 4283316807
0.0043866672 0.01692 0.65800005 4283447621
0.0056400001 0.01692 0.65800005 4283579460
0.0068933335 0.01692 0.65800005 4283711295
0.0081466679 0.01692 0.65800005 4283382587
0.0094000008 0.01692 0.65800005 4283054145
0.010653334 0.01692 0.65800005 4282791239
0.011942858 0.01697143 0.66000003 4282528324
0.013200001 0.01697143 0.66000003 4282199874
0.014457143 0.01697143 0.66000003 4281937212
0.015714286 0.01697143 0.66000003 4281804855
0.01697143 0.01697143 0.66000003 4281672760
0.01831143 0.017048571 0.66300005 4281409850
0.019574286 0.017048571 0.66300005 4281147189
0.020837145 0.017048571 0.66300005 4281082160
0.022100002 0.017048571 0.66300005 4281082672
0.023362858 0.017048571 0.66300005 4281016881
0.024625717 0.017048571 0.66300005 4280951081
0.025888573 0.017048571 0.66300005 4280885282
0.02715143 0.017048571 0.66300005 4280819240
0.028414289 0.017048571 0.66300005 4280818991
0.029677145 0.017048571 0.66300005 4280885295
0.030940004 0.017048571 0.66300005 4280884783
0.032202858 0.017048571 0.66300005 4280950317
0.033465717 0.017048571 0.66300005 4280753196
0.034833334 0.017099999 0.66500002 4280556078
0.035991434 0.017048571 0.66300005 4280621616
0.037366666 0.017099999 0.66500002 4280687407
0.038633335 0.017099999 0.66500002 4280621614
0.039900001 0.017099999 0.66500002 4280556070
0.04122857 0.017125715 0.66600001 4280622367
0.042560954 0.017151428 0.66700006 4280622627
0.04383143 0.017151428 0.66700006 4280753704
0.045101907 0.017151428 0.66700006 4280820008
0.04651143 0.017202858 0.66900003 4280885033
0.047785718 0.017202858 0.66900003 4280884777
0.049059998 0.017202858 0.66900003 4280950313
0.050334286 0.017202858 0.66900003 4281081385
0.051608574 0.017202858 0.66900003 4281211946
0.052882861 0.017202858 0.66900003 4281342514
0.054157145 0.017202858 0.66900003 4281672507
0.055514287 0.017228572 0.67000002 4282002484
0.056790475 0.017228572 0.67000002 4282134318
0.058066666 0.017228572 0.67000002 4282266415
0.059431426 0.017254286 0.671 4282332720
0.060800005 0.017280001 0.67200005 4282399794
0.062080003 0.017280001 0.67200005 4282465077
0.063360006 0.017280001 0.67200005 4282531127
0.06464 0.017280001 0.67200005 4282596665
-0.041157145 0.017814288 0.64500004 4291562562
-0.039928574 0.017814288 0.64500004 4291559749
-0.038640004 0.017786669 0.64400005 4291495497
-0.037471429 0.017814288 0.64500004 4291495232
-0.036242861 0.017814288 0.64500004 4291364151
-0.035068572 0.017841905 0.64600003 4291298362
-0.033890475 0.017869525 0.64700001 4291167037
-0.032708574 0.017897142 0.648 4291101230
-0.031571429 0.017952381 0.65000004 4290904608
-0.030333335 0.017952381 0.65000004 4290707991
-0.029005714 0.017897142 0.648 4290707983
-0.027771428 0.017897142 0.648 4290707980
-0.024217142 0.018007619 0.65200001 4285989685
-0.023010477 0.01803524 0.65300006 4282722365
-0.021766668 0.01803524 0.65300006 4283053893
-0.020522859 0.01803524 0.65300006 4283381319
-0.01927905 0.01803524 0.65300006 4283119177
-0.018090477 0.018090477 0.65500003 4282922568
-0.016842859 0.018090477 0.65500003 4282791496
-0.015619047 0.018118095 0.65600002 4282725960
-0.014369524 0.018118095 0.65600002 4282857288
-0.01312 0.018118095 0.65600002 4283053892
-0.011870476 0.018118095 0.65600002 4282988353
-0.010653334 0.018173333 0.65800005 4282988354
-0.0093857143 0.018145714 0.65700001 4282988611
-0.0081342859 0.018145714 0.65700001 4282988355
-0.0068828571 0.018145714 0.65700001 4282988355
-0.0056400001 0.018173333 0.65800005 4283053889
-0.0043866672 0.018173333 0.65800005 4283054144
-0.0031333335 0.018173333 0.65800005 4283054146
-0.0018800002 0.018173333 0.65800005 4283119684
-0.0006266667 0.018173333 0.65800005 4283185734
0.00062857143 0.018228572 0.66000003 4283382344
0.0018857142 0.018228572 0.66000003 4283579466
0.0031428572 0.018228572 0.66000003 4283645772
0.0043866672 0.018173333 0.65800005 4283778125
0.005657143 0.018228572 0.66000003 4284041806
0.0069142859 0.018228572 0.66000003 4284302918
0.0081466679 0.018173333 0.65800005 4283777854
0.0094000008 0.018173333 0.65800005 4283250235
0.010653334 0.018173333 0.65800005 4282790713
0.011942858 0.018228572 0.66000003 4282395705
0.013200001 0.018228572 0.66000003 4281870137
0.014457143 0.018228572 0.66000003 4281410613
0.015714286 0.018228572 0.66000003 4281278770
0.01697143 0.018228572 0.66000003 4281213488
0.01828381 0.01828381 0.66200006 4281015598
0.019544763 0.01828381 0.66200006 4280819504
0.020805717 0.01828381 0.66200006 4280820018
0.022066668 0.01828381 0.66200006 4280885297
0.023327621 0.01828381 0.66200006 4280885296
0.024625717 0.01831143 0.66300005 4280885292
0.025849525 0.01828381 0.66200006 4280819496
0.02715143 0.01831143 0.66300005 4280819243
0.028414289 0.01831143 0.66300005 4280884783
0.029677145 0.01831143 0.66300005 4280950321
0.030940004 0.01831143 0.66300005 4281016115
0.032202858 0.01831143 0.66300005 4281146926
0.033465717 0.01831143 0.66300005 4280884522
0.034833334 0.018366667 0.66500002 4280622124
0.036100004 0.018366667 0.66500002 4280622126
0.037366666 0.018366667 0.66500002 4280621869
0.038633335 0.018366667 0.66500002 4280556332
0.039960001 0.018394286 0.66600001 4280556583
0.041290481 0.018421907 0.66700006 4280557091
0.042560954 0.018421907 0.66700006 4280622628
0.043962859 0.018477144 0.66900003 4280753957
0.045237143 0.018477144 0.66900003 4280951082
0.04651143 0.018477144 0.66900003 4281014576
0.047785718 0.018477144 0.66900003 4281080625
0.049059998 0.018477144 0.66900003 4281211187
0.050334286 0.018477144 0.66900003 4281409840
0.051608574 0.018477144 0.66900003 4281674028
0.052961905 0.018504761 0.67000002 4282004018
0.054238096 0.018504761 0.67000002 4282334264
0.055514287 0.018504761 0.67000002 4282661174
0.056790475 0.018504761 0.67000002 4282726197
0.058066666 0.018504761 0.67000002 4282857524
0.059342857 0.018504761 0.67000002 4282726964
0.060800005 0.01856 0.67200005 4282661430
0.062080003 0.01856 0.67200005 4282661433
-0.041284762 0.019101905 0.64700001 4291494448
-0.04005238 0.019101905 0.64700001 4291428925
-0.038820002 0.019101905 0.64700001 4291428939
-0.037587617 0.019101905 0.64700001 4291363390
-0.036355238 0.019101905 0.64700001 4291297585
-0.035177141 0.019131428 0.648 4291232052
-0.033942856 0.019131428 0.648 4291100984
-0.032708574 0.019131428 0.648 4291035441
-0.031474285 0.019131428 0.648 4290838826
-0.030240001 0.019131428 0.648 4290707744
-0.028960953 0.019101905 0.64700001 4290707734
-0.027728571 0.019101905 0.64700001 4290707980
-0.026496191 0.019101905 0.64700001 4290183682
-0.024217142 0.019249523 0.65200001 4286841396
-0.022975238 0.019249523 0.65200001 4284096827
-0.021733332 0.019249523 0.65200001 4283708227
-0.020522859 0.01927905 0.65300006 4283251013
-0.01927905 0.01927905 0.65300006 4283119688
-0.01803524 0.01927905 0.65300006 4283052871
-0.016791431 0.01927905 0.65300006 4282857030
-0.015619047 0.019367618 0.65600002 4282726471
-0.014369524 0.019367618 0.65600002 4282922824
-0.01312 0.019367618 0.65600002 4283119940
-0.011870476 0.019367618 0.65600002 4283119680
-0.010637143 0.019397143 0.65700001 4283184962
-0.0093857143 0.019397143 0.65700001 4283184708
-0.0081342859 0.019397143 0.65700001 4283184452
-0.0068828571 0.019397143 0.65700001 4283118917
-0.0056400001 0.019426668 0.65800005 4283118915
-0.0043866672 0.019426668 0.65800005 4283118913
-0.0031333335 0.019426668 0.65800005 4283184707
-0.0018800002 0.019426668 0.65800005 4283316038
-0.0006266667 0.019426668 0.65800005 4283447883
0.00062857143 0.019485716 0.66000003 4283579472
0.0018857142 0.019485716 0.66000003 4283711057
0.0031428572 0.019485716 0.66000003 4283711570
0.0043866672 0.019426668 0.65800005 4283712853
0.005657143 0.019485716 0.66000003 4283713625
0.0069142859 0.019485716 0.66000003 4283779917
0.0081466679 0.019426668 0.65800005 4283187265
0.0094000008 0.019426668 0.65800005 4282529078
0.010685714 0.019485716 0.66000003 4282330668
0.011942858 0.019485716 0.66000003 4282066734
0.013200001 0.019485716 0.66000003 4281804081
0.014457143 0.019485716 0.66000003 4281541679
0.015714286 0.019485716 0.66000003 4281344301
0.016997144 0.019515239 0.66100001 4281147688
0.01828381 0.019544763 0.66200006 4280950819
0.019544763 0.019544763 0.66200006 4280754219
0.020805717 0.019544763 0.66200006 4280819508
0.022066668 0.019544763 0.66200006 4280885041
0.023327621 0.019544763 0.66200006 4280753967
0.024588574 0.019544763 0.66200006 4280689198
0.025849525 0.019544763 0.66200006 4280754222
0.02715143 0.019574286 0.66300005 4280819246
0.028414289 0.019574286 0.66300005 4280884783
0.029677145 0.019574286 0.66300005 4280950323
0.031033335 0.019633332 0.66500002 4280950328
0.032299999 0.019633332 0.66500002 4280950320
0.033566669 0.019633332 0.66500002 4280819240
0.034833334 0.019633332 0.66500002 4280688170
0.036100004 0.019633332 0.66500002 4280688173
0.037366666 0.019633332 0.66500002 4280688171
0.038691428 0.019662857 0.66600001 4280752938
0.040020004 0.019692382 0.66700006 4280754472
0.041290481 0.019692382 0.66700006 4280818983
0.042560954 0.019692382 0.66700006 4280820516
0.043962859 0.01975143 0.66900003 4281082402
0.045237143 0.01975143 0.66900003 4281410092
0.04651143 0.01975143 0.66900003 4281540663
0.047785718 0.01975143 0.66900003 4281671226
0.049059998 0.01975143 0.66900003 4281804350
0.050334286 0.01975143 0.66900003 4282003254
0.051685713 0.019780952 0.67000002 4282135855
0.052961905 0.019780952 0.67000002 4282334002
0.054238096 0.019780952 0.67000002 4282465077
0.055514287 0.019780952 0.67000002 4282660921
0.056790475 0.019780952 0.67000002 4282791741
0.058066666 0.019780952 0.67000002 4282923066
0.059342857 0.019780952 0.67000002 4282791992
-0.043681905 0.020302858 0.64600003 4291560244
-0.04245143 0.020302858 0.64600003 4291428659
-0.041284762 0.020334285 0.64700001 4291363122
-0.04005238 0.020334285 0.64700001 4291363128
-0.038820002 0.020334285 0.64700001 4291297598
-0.037587617 0.020334285 0.64700001 4291297593
-0.036411427 0.020365715 0.648 4291232053
-0.035177141 0.020365715 0.648 4291166522
-0.033942856 0.020365715 0.648 4291035456
-0.032708574 0.020365715 0.648 4290969910
-0.031474285 0.020365715 0.648 4290838828
-0.030240001 0.020365715 0.648 4290773286
-0.028960953 0.020334285 0.64700001 4290773281
-0.027728571 0.020334285 0.64700001 4290773270
-0.026496191 0.020334285 0.64700001 4290314763
-0.025420001 0.020460002 0.65100002 4289921568
-0.024179999 0.020460002 0.65100002 4287693109
-0.022975238 0.020491429 0.65200001 4285537337
-0.021766668 0.020522859 0.65300006 4284362558
-0.020522859 0.020522859 0.65300006 4283184962
-0.01927905 0.020522859 0.65300006 4283185734
-0.01803524 0.020522859 0.65300006 4283185221
-0.016842859 0.020585716 0.65500003 4282922820
-0.015619047 0.020617144 0.65600002 4282726212
-0.014391429 0.020648571 0.65700001 4282922821
-0.013139999 0.020648571 0.65700001 4283185732
-0.011888571 0.020648571 0.65700001 4283251779
-0.010637143 0.020648571 0.65700001 4283383369
-0.0093857143 0.020648571 0.65700001 4283383887
-0.0081342859 0.020648571 0.65700001 4283382857
-0.0068828571 0.020648571 0.65700001 4283316292
-0.0056400001 0.020680003 0.65800005 4283250501
-0.0043866672 0.020680003 0.65800005 4283250247
-0.0031333335 0.020680003 0.65800005 4283315788
-0.0018800002 0.020680003 0.65800005 4283512657
-0.0006266667 0.020680003 0.65800005 4283777616
0.0006266667 0.020680003 0.65800005 4283780432
0.0018800002 0.020680003 0.65800005 4283844434
0.0031333335 0.020680003 0.65800005 4283711828
0.0044000004 0.020742858 0.66000003 4283646802
0.005657143 0.020742858 0.66000003 4283450961
0.0069142859 0.020742858 0.66000003 4283316537
0.008171428 0.020742858 0.66000003 4282592290
0.0094285719 0.020742858 0.66000003 4281870907
0.010685714 0.020742858 0.66000003 4281805140
0.011942858 0.020742858 0.66000003 4281801526
0.013200001 0.020742858 0.66000003 4281732633
0.014457143 0.020742858 0.66000003 4281734691
0.015714286 0.020742858 0.66000003 4281409069
0.016997144 0.020774284 0.66100001 4281147179
0.01828381 0.020805717 0.66200006 4280950826
0.019544763 0.020805717 0.66200006 4280754223
0.020742858 0.020742858 0.66000003 4280818996
0.022066668 0.020805717 0.66200006 4280950577
0.023327621 0.020805717 0.66200006 4280688431
0.024588574 0.020805717 0.66200006 4280492079
0.025849525 0.020805717 0.66200006 4280623408
0.02715143 0.020837145 0.66300005 4280820015
0.028414289 0.020837145 0.66300005 4280885550
0.029677145 0.020837145 0.66300005 4280950577
0.031033335 0.020900002 0.66500002 4280885557
0.032299999 0.020900002 0.66500002 4280818988
0.033566669 0.020900002 0.66500002 4280753699
0.034833334 0.020900002 0.66500002 4280753703
0.036100004 0.020900002 0.66500002 4280754220
0.037366666 0.020900002 0.66500002 4280819244
0.038633335 0.020900002 0.66500002 4280884013
0.039960001 0.020931428 0.66600001 4281015853
0.04122857 0.020931428 0.66600001 4281015598
0.042560954 0.020962859 0.66700006 4281081644
0.04383143 0.020962859 0.66700006 4281475626
0.045101907 0.020962859 0.66700006 4281870128
0.04651143 0.021025715 0.66900003 4282068022
0.047785718 0.021025715 0.66900003 4282265912
0.049059998 0.021025715 0.66900003 4282464059
0.050334286 0.021025715 0.66900003 4282660664
0.051608574 0.021025715 0.66900003 4282660662
0.052961905 0.021057144 0.67000002 4282660920
-0.043681905 0.021533333 0.64600003 4291036216
-0.04245143 0.021533333 0.64600003 4291559734
-0.041220952 0.021533333 0.64600003 4291428661
-0.04005238 0.021566667 0.64700001 4291363123
-0.038820002 0.021566667 0.64700001 4291297585
-0.037587617 0.021566667 0.64700001 4291297589
-0.036411427 0.021600001 0.648 4291166521
-0.035177141 0.021600001 0.648 4291100993
-0.033942856 0.021600001 0.648 4290969929
-0.032658096 0.021566667 0.64700001 4290904380
-0.031425714 0.021566667 0.64700001 4290773295
-0.030193334 0.021566667 0.64700001 4290707757
-0.028960953 0.021566667 0.64700001 4290707756
-0.027685715 0.021533333 0.64600003 4290642208
-0.02645524 0.021533333 0.64600003 4290380052
-0.025420001 0.0217 0.65100002 4290118437
-0.024217142 0.021733332 0.65200001 4288217398
-0.022975238 0.021733332 0.65200001 4286256951
-0.021766668 0.021766668 0.65300006 4284754233
-0.020522859 0.021766668 0.65300006 4283184702
-0.01927905 0.021766668 0.65300006 4283185220
-0.01803524 0.021766668 0.65300006 4283184963
-0.016791431 0.021766668 0.65300006 4282923074
-0.015619047 0.021866668 0.65600002 4282726722
-0.014369524 0.021866668 0.65600002 4282922818
-0.01312 0.021866668 0.65600002 4283185988
-0.011888571 0.0219 0.65700001 4283382598
-0.010637143 0.0219 0.65700001 4283580752
-0.0093857143 0.0219 0.65700001 4283515226
-0.0081342859 0.0219 0.65700001 4283449679
-0.0068828571 0.0219 0.65700001 4283383876
-0.0056314287 0.0219 0.65700001 4283383624
-0.0043799998 0.0219 0.65700001 4283447885
-0.0031285714 0.0219 0.65700001 4283512404
-0.0018771428 0.0219 0.65700001 4283646044
-0.0006266667 0.021933336 0.65800005 4283845206
0.0006266667 0.021933336 0.65800005 4283911504
0.0018800002 0.021933336 0.65800005 4284042323
0.0031333335 0.021933336 0.65800005 4283777110
0.0043866672 0.021933336 0.65800005 4283579984
0.005657143 0.022 0.66000003 4282728522
0.0069142859 0.022 0.66000003 4281872166
0.008171428 0.022 0.66000003 4283831811
0.0094285719 0.022 0.66000003 4285858624
0.010685714 0.022 0.66000003 4285943677
0.011942858 0.022 0.66000003 4286076991
0.013200001 0.022 0.66000003 4284035073
0.014457143 0.022 0.66000003 4281993239
0.015714286 0.022 0.66000003 4281736493
0.016997144 0.022033334 0.66100001 4281542959
0.018256191 0.022033334 0.66100001 4281213745
0.019515239 0.022033334 0.66100001 4280885555
0.020805717 0.022066668 0.66200006 4280950837
0.022066668 0.022066668 0.66200006 4281016370
0.023327621 0.022066668 0.66200006 4280819503
0.024588574 0.022066668 0.66200006 4280688433
0.025888573 0.022100002 0.66300005 4280754227
0.02715143 0.022100002 0.66300005 4280819760
0.028414289 0.022100002 0.66300005 4280885294
0.029677145 0.022100002 0.66300005 4280884784
0.030940004 0.022100002 0.66300005 4280884530
0.032299999 0.022166668 0.66500002 4280884264
0.033566669 0.022166668 0.66500002 4280884510
0.034833334 0.022166668 0.66500002 4280884773
0.036100004 0.022166668 0.66500002 4281015852
0.037366666 0.022166668 0.66500002 4281212462
0.038633335 0.022166668 0.66500002 4281343536
0.039900001 0.022166668 0.66500002 4281540403
0.04122857 0.0222 0.66600001 4281607478
0.042497143 0.0222 0.66600001 4281740084
0.04383143 0.022233333 0.66700006 4282002483
0.045101907 0.022233333 0.66700006 4282265140
0.046372388 0.022233333 0.66700006 4282331701
0.047785718 0.022300001 0.66900003 4282463799
0.049059998 0.022300001 0.66900003 4282595129
0.050334286 0.022300001 0.66900003 4282792507
0.051608574 0.022300001 0.66900003 4282726461
-0.043681905 0.022763809 0.64600003 4290512196
-0.04245143 0.022763809 0.64600003 4291756861
-0.041220952 0.022763809 0.64600003 4291559990
-0.04005238 0.022799049 0.64700001 4291363125
-0.038760003 0.022763809 0.64600003 4291297588
-0.037529524 0.022763809 0.64600003 4291297590
-0.036355238 0.022799049 0.64700001 4291166520
-0.035177141 0.022834286 0.648 4291100989
-0.033838097 0.022763809 0.64600003 4290969922
-0.032607622 0.022763809 0.64600003 4290838840
-0.031425714 0.022799049 0.64700001 4290773295
-0.030193334 0.022799049 0.64700001 4290707754
-0.028916191 0.022763809 0.64600003 4290642214
-0.027685715 0.022763809 0.64600003 4290576673
-0.02645524 0.022763809 0.64600003 4290445595
-0.025459047 0.022975238 0.65200001 4290380069
-0.024217142 0.022975238 0.65200001 4288676143
-0.023010477 0.023010477 0.65300006 4287041332
-0.021766668 0.023010477 0.65300006 4285145914
-0.020522859 0.023010477 0.65300006 4283249725
-0.01927905 0.023010477 0.65300006 4283185473
-0.01803524 0.023010477 0.65300006 4283184448
-0.016791431 0.023010477 0.65300006 4282921280
-0.015619047 0.023116192 0.65600002 4282725438
-0.014369524 0.023116192 0.65600002 4282922813
-0.01312 0.023116192 0.65600002 4283185473
-0.011870476 0.023116192 0.65600002 4283448134
-0.010637143 0.023151428 0.65700001 4283777355
-0.0093857143 0.023151428 0.65700001 4283646801
-0.0081342859 0.023151428 0.65700001 4283579974
-0.0068828571 0.023151428 0.65700001 4283514172
-0.0056314287 0.023151428 0.65700001 4283514440
-0.0043799998 0.023151428 0.65700001 4283645781
-0.0031285714 0.023151428 0.65700001 4283779668
-0.0018771428 0.023151428 0.65700001 4283848276
-0.0006266667 0.023186669 0.65800005 4283911251
0.0006266667 0.023186669 0.65800005 4284042578
0.0018800002 0.023186669 0.65800005 4284238675
0.0031333335 0.023186669 0.65800005 4283842645
0.0043866672 0.023186669 0.65800005 4283514963
0.005657143 0.023257142 0.66000003 4281940561
0.0069142859 0.023257142 0.66000003 4280424773
0.008171428 0.023257142 0.66000003 4285137209
0.0094285719 0.023257142 0.66000003 4289870666
0.010685714 0.023257142 0.66000003 4290082139
0.011942858 0.023257142 0.66000003 4290343748
0.013200001 0.023257142 0.66000003 4286280238
0.014457143 0.023257142 0.66000003 4282254380
0.015714286 0.023257142 0.66000003 4282129451
0.016997144 0.023292381 0.66100001 4282001710
0.018256191 0.023292381 0.66100001 4281542193
0.019544763 0.023327621 0.66200006 4281083185
0.020805717 0.023327621 0.66200006 4281082928
0.022066668 0.023327621 0.66200006 4281082672
0.023327621 0.023327621 0.66200006 4281016880
0.024625717 0.023362858 0.66300005 4280950832
0.025888573 0.023362858 0.66300005 4280885297
0.02715143 0.023362858 0.66300005 4280885294
0.028414289 0.023362858 0.66300005 4280885291
0.029677145 0.023362858 0.66300005 4280884525
0.031033335 0.023433335 0.66500002 4280884016
0.032299999 0.023433335 0.66500002 4280949036
0.033566669 0.023433335 0.66500002 4281014312
0.034833334 0.023433335 0.66500002 4281080111
0.036100004 0.023433335 0.66500002 4281342774
0.037366666 0.023433335 0.66500002 4281606452
0.038633335 0.023433335 0.66500002 4281870130
0.039960001 0.023468571 0.66600001 4282133299
0.04122857 0.023468571 0.66600001 4282265397
0.042560954 0.023503812 0.66700006 4282396983
0.04383143 0.023503812 0.66700006 4282528825
0.045101907 0.023503812 0.66700006 4282659897
0.046372388 0.023503812 0.66700006 4282660153
0.047785718 0.023574285 0.66900003 4282660666
0.049059998 0.023574285 0.66900003 4282791995
0.050334286 0.023574285 0.66900003 4282923580
0.051608574 0.023574285 0.66900003 4282792509
-0.043681905 0.023994286 0.64600003 4288285008
-0.04245143 0.023994286 0.64600003 4291038019
-0.041220952 0.023994286 0.64600003 4291298103
-0.039990477 0.023994286 0.64600003 4291625271
-0.038700003 0.023957143 0.64500004 4291428664
-0.037413336 0.023920001 0.64400005 4291297592
-0.036186669 0.023920001 0.64400005 4291166520
-0.035014287 0.023957143 0.64500004 4291100985
-0.033785716 0.023957143 0.64500004 4290969915
-0.032607622 0.023994286 0.64600003 4290904373
-0.031377144 0.023994286 0.64600003 4290838831
-0.030146668 0.023994286 0.64600003 4290773288
-0.028916191 0.023994286 0.64600003 4290707745
-0.027728571 0.024031429 0.64700001 4290642210
-0.026496191 0.024031429 0.64700001 4290576675
-0.025380954 0.02414286 0.65000004 4290511909
-0.024217142 0.024217142 0.65200001 4289200424
-0.023010477 0.024254289 0.65300006 4287891505
-0.021766668 0.024254289 0.65300006 4285601851
-0.020522859 0.024254289 0.65300006 4283314749
-0.01927905 0.024254289 0.65300006 4283315007
-0.01803524 0.024254289 0.65300006 4283249726
-0.016791431 0.024254289 0.65300006 4283052862
-0.015619047 0.024365716 0.65600002 4282855995
-0.014369524 0.024365716 0.65600002 4282987576
-0.01312 0.024365716 0.65600002 4283184959
-0.011888571 0.024402859 0.65700001 4283382598
-0.010637143 0.024402859 0.65700001 4283580743
-0.0093857143 0.024402859 0.65700001 4283645768
-0.0081466679 0.024440002 0.65800005 4283644990
-0.0068933335 0.024440002 0.65800005 4283841333
-0.0056314287 0.024402859 0.65700001 4284037705
-0.0043799998 0.024402859 0.65700001 4284237405
-0.0031285714 0.024402859 0.65700001 4284437333
-0.0018771428 0.024402859 0.65700001 4284109133
-0.00062571431 0.024402859 0.65700001 4283780944
0.00062571431 0.024402859 0.65700001 4284239188
0.0018771428 0.024402859 0.65700001 4284762708
0.0031333335 0.024440002 0.65800005 4284237396
0.0043866672 0.024440002 0.65800005 4283777878
0.005657143 0.024514288 0.66000003 4282792536
0.0069142859 0.024514288 0.66000003 4281861219
0.008171428 0.024514288 0.66000003 4284490351
0.0094285719 0.024514288 0.66000003 4287148628
0.010685714 0.024514288 0.66000003 4288259898
0.011942858 0.024514288 0.66000003 4289371210
0.013200001 0.024514288 0.66000003 4285685595
0.014457143 0.024514288 0.66000003 4281991490
0.015714286 0.024514288 0.66000003 4281998121
0.01697143 0.024514288 0.66000003 4282001965
0.018256191 0.024551429 0.66100001 4281607474
0.019515239 0.024551429 0.66100001 4281212463
0.020805717 0.024588574 0.66200006 4281147948
0.022066668 0.024588574 0.66200006 4281082670
0.023362858 0.024625717 0.66300005 4280951345
0.024625717 0.024625717 0.66300005 4280885552
0.025888573 0.024625717 0.66300005 4280951087
0.02715143 0.024625717 0.66300005 4281082411
0.028414289 0.024625717 0.66300005 4281147176
0.029677145 0.024625717 0.66300005 4281212203
0.031033335 0.024700001 0.66500002 4281277743
0.032299999 0.024700001 0.66500002 4281410096
0.033566669 0.024700001 0.66500002 4281541426
0.034833334 0.024700001 0.66500002 4281738297
0.036100004 0.024700001 0.66500002 4281936448
0.037366666 0.024700001 0.66500002 4282200378
0.038633335 0.024700001 0.66500002 4282266676
0.039900001 0.024700001 0.66500002 4282398516
0.041166667 0.024700001 0.66500002 4282464564
0.042560954 0.024774287 0.66700006 4282530617
0.04383143 0.024774287 0.66700006 4282661439
0.045101907 0.024774287 0.66700006 4282726974
0.046372388 0.024774287 0.66700006 4282792254
-0.041220952 0.025224764 0.64600003 4291101769
-0.039928574 0.025185715 0.64500004 4291887681
-0.038640004 0.025146669 0.64400005 4291625273
-0.037297145 0.025068572 0.64200002 4291363130
-0.036074288 0.025068572 0.64200002 4291232059
-0.035014287 0.025185715 0.64500004 4291100987
-0.033785716 0.025185715 0.64500004 4291035452
-0.032607622 0.025224764 0.64600003 4290969915
-0.031377144 0.025224764 0.64600003 4290904379
-0.030193334 0.025263811 0.64700001 4290838833
-0.028916191 0.025224764 0.64600003 4290773288
-0.027728571 0.025263811 0.64700001 4290707749
-0.026537143 0.025302857 0.648 4290707747
-0.025420001 0.025420001 0.65100002 4290707745
-0.024217142 0.025459047 0.65200001 4289724958
-0.023010477 0.025498098 0.65300006 4288742444
-0.021766668 0.025498098 0.65300006 4286058043
-0.020522859 0.025498098 0.65300006 4283444287
-0.01927905 0.025498098 0.65300006 4283381059
-0.01803524 0.025498098 0.65300006 4283381058
-0.016791431 0.025498098 0.65300006 4283184450
-0.015619047 0.025615238 0.65600002 4282987074
-0.014347619 0.025576191 0.65500003 4283118147
-0.01312 0.025615238 0.65600002 4283250758
-0.011870476 0.025615238 0.65600002 4283317066
-0.010637143 0.025654286 0.65700001 4283448907
-0.0093857143 0.025654286 0.65700001 4283579981
-0.0081342859 0.025654286 0.65700001 4283776075
-0.0068828571 0.025654286 0.65700001 4284168778
-0.0056314287 0.025654286 0.65700001 4284631890
-0.0043799998 0.025654286 0.65700001 4284898906
-0.0031285714 0.025654286 0.65700001 4285158743
-0.0018742858 0.025615238 0.65600002 4284432212
-0.00062571431 0.025654286 0.65700001 4283713107
0.00062571431 0.025654286 0.65700001 4284501587
0.0018771428 0.025654286 0.65700001 4285288794
0.0031285714 0.025654286 0.65700001 4284634209
0.0043866672 0.025693335 0.65800005 4284041310
0.0056400001 0.025693335 0.65800005 4283644507
0.0069142859 0.02577143 0.66000003 4283317858
0.008171428 0.02577143 0.66000003 4283843432
0.0094285719 0.02577143 0.66000003 4284445538
0.010701905 0.025810476 0.66100001 4286424156
0.011942858 0.02577143 0.66000003 4288444508
0.013200001 0.02577143 0.66000003 4285090909
0.014457143 0.02577143 0.66000003 4281807692
0.015714286 0.02577143 0.66000003 4281932603
0.01697143 0.02577143 0.66000003 4282066488
0.018256191 0.025810476 0.66100001 4281673013
0.019515239 0.025810476 0.66100001 4281344561
0.020774284 0.025810476 0.66100001 4281212973
0.022066668 0.025849525 0.66200006 4281148718
0.023327621 0.025849525 0.66200006 4280952111
0.024625717 0.025888573 0.66300005 4280820526
0.025888573 0.025888573 0.66300005 4281015340
0.02715143 0.025888573 0.66300005 4281276972
0.028414289 0.025888573 0.66300005 4281407532
0.029766668 0.025966669 0.66500002 4281539374
0.031033335 0.025966669 0.66500002 4281671473
0.032348569 0.026005713 0.66600001 4281869619
0.033617143 0.026005713 0.66600001 4282133302
0.034885716 0.026005713 0.66600001 4282397755
0.036154289 0.026005713 0.66600001 4282596672
0.037422854 0.026005713 0.66600001 4282792767
0.038691428 0.026005713 0.66600001 4282726719
0.039900001 0.025966669 0.66500002 4282661180
0.041166667 0.025966669 0.66500002 4282661177
-0.039928574 0.026414288 0.64500004 4291888970
-0.038640004 0.026373334 0.64400005 4291625274
-0.037413336 0.026373334 0.64400005 4291363132
-0.036074288 0.02629143 0.64200002 4291232063
-0.031377144 0.02645524 0.64600003 4290904391
-0.030193334 0.026496191 0.64700001 4290838843
-0.029005714 0.026537143 0.648 4290773295
-0.027771428 0.026537143 0.648 4290707753
-0.026619049 0.026619049 0.65000004 4290707748
-0.025380954 0.026619049 0.65000004 4290707740
-0.024217142 0.026700953 0.65200001 4289986837
-0.023010477 0.026741907 0.65300006 4289331496
-0.021766668 0.026741907 0.65300006 4286646075
-0.020585716 0.026823809 0.65500003 4284032833
-0.019338096 0.026823809 0.65500003 4283642695
-0.01803524 0.026741907 0.65300006 4283316807
-0.016791431 0.026741907 0.65300006 4283250247
-0.015619047 0.026864761 0.65600002 4283118410
-0.014347619 0.026823809 0.65500003 4283184462
-0.01312 0.026864761 0.65600002 4283251278
-0.011870476 0.026864761 0.65600002 4283382607
-0.010637143 0.026905714 0.65700001 4283514448
-0.0093857143 0.026905714 0.65700001 4283776338
-0.0081342859 0.026905714 0.65700001 4284038232
-0.0068828571 0.026905714 0.65700001 4284632159
-0.0056314287 0.026905714 0.65700001 4285226331
-0.0043799998 0.026905714 0.65700001 4284766808
-0.0031285714 0.026905714 0.65700001 4284307289
-0.0018771428 0.026905714 0.65700001 4283974491
-0.00062571431 0.026905714 0.65700001 4283711319
0.00062571431 0.026905714 0.65700001 4284172115
0.0018771428 0.026905714 0.65700001 4284635232
0.0031285714 0.026905714 0.65700001 4284305774
0.0043866672 0.026946669 0.65800005 4284042598
0.0056400001 0.026946669 0.65800005 4283779423
0.0068933335 0.026946669 0.65800005 4283582048
0.0081466679 0.026946669 0.65800005 4283779426
0.0094285719 0.027028572 0.66000003 4284042608
0.010685714 0.027028572 0.66000003 4284759935
0.011942858 0.027028572 0.66000003 4285543023
0.013200001 0.027028572 0.66000003 4284238431
0.014457143 0.027028572 0.66000003 4282928982
0.015714286 0.027028572 0.66000003 4282196814
0.01697143 0.027028572 0.66000003 4281541187
0.018228572 0.027028572 0.66000003 4281410361
